# .PCD v0.7 - Point Cloud Data file format
VERSION 0.7
FIELDS x y z rgb
SIZE 4 4 4 4
TYPE F F F U
COUNT 1 1 1 1
WIDTH 1121
HEIGHT 1
VIEWPOINT 0 0 0 1 0 0 0
POINTS 1121
DATA ascii
-6.9229584 0.12573735 17.256367 4285892664
-6.893661 0.1257564 17.281132 4285892664
-6.8615341 0.12575205 17.300276 4285892664
-6.8384671 0.12582605 17.338499 4285892664
-6.8107281 0.12586105 17.367331 4285892664
-6.7774444 0.12584889 17.384743 4285892664
-6.744103 0.12583673 17.402185 4285892664
-6.7053127 0.12577729 17.40811 4285892664
-8.3971643 0.16999103 17.553911 4285892664
-8.2924366 0.16911779 17.448923 4285892664
-8.189415 0.16825879 17.345646 4285892664
-8.091362 0.1674554 17.249758 4285892664
-7.9764991 0.16643192 17.123453 4285892664
-7.8796544 0.16562946 17.027224 4285892664
-7.7966914 0.16499804 16.954296 4285892664
-7.7269402 0.16453138 16.903879 4285892664
-7.6648369 0.1641598 16.866449 4285892664
-7.6111202 0.16389427 16.84355 4285892664
-7.566545 0.16374604 16.836794 4285892664
-7.5220566 0.16359812 16.830051 4285892664
-7.4776545 0.16345046 16.82332 4285892664
-7.4401278 0.16339296 16.82905 4285892664
-7.405499 0.16337399 16.840126 4285892664
-7.3718033 0.16336787 16.852995 4285892664
-7.3428636 0.16342607 16.874825 4285892664
-7.3138504 0.16348444 16.896708 4285892664
-7.2847648 0.16354294 16.918646 4285892664
-7.2556062 0.16360161 16.940641 4285892664
-7.2263737 0.16366041 16.96269 4285892664
-7.1970677 0.16371936 16.984795 4285892664
-7.1695724 0.16380453 17.010603 4285892664
-7.140111 0.16386384 17.032831 4285892664
-7.1096392 0.1639102 17.053282 4285892664
-7.0800314 0.16396978 17.075617 4285892664
-7.0512791 0.16404265 17.099855 4285892664
-7.0243025 0.16414206 17.127865 4285892664
-6.9935303 0.164189 17.148537 4285892664
-6.9645329 0.16426249 17.172981 4285892664
-6.9372921 0.16436268 17.201235 4285892664
-6.9127131 0.16450314 17.235222 4285892664
-6.8871117 0.16463083 17.267467 4285892664
-6.8614078 0.16475905 17.299841 4285892664
-6.8456593 0.16503587 17.353333 4285892664
-6.8233852 0.16521978 17.393742 4285892664
-6.7936916 0.1652959 17.418921 4285892664
-6.7639117 0.16537224 17.444172 4285892664
-6.7286143 0.16536702 17.457859 4285892664
-6.6887798 0.16529375 17.461866 4285892664
-8.5220957 0.21124689 17.617601 4285892664
-8.4274969 0.2102332 17.531404 4285892664
-8.3284044 0.20913188 17.436539 4285892664
-8.2330446 0.20808682 17.346956 4285892664
-8.1357088 0.2069976 17.252913 4285892664
-8.0398254 0.20592463 17.160271 4285892664
-7.9283609 0.2045635 17.039391 4285892664
-7.8356194 0.20352654 16.949883 4285892664
-7.7564764 0.2027258 16.883251 4285892664
-7.6923237 0.20218991 16.842352 4285892664
-7.6346235 0.20176704 16.812418 4285892664
-7.5821872 0.20143707 16.791506 4285892664
-7.5397844 0.20128912 16.78837 4285892664
-7.4974403 0.20114137 16.785236 4285892664
-7.4551558 0.20099384 16.782108 4285892664
-7.4206438 0.20099057 16.793127 4285892664
-7.3880253 0.2010234 16.807703 4285892664
-7.356319 0.20107433 16.824074 4285892664
-7.3255153 0.20114346 16.842255 4285892664
-7.2936993 0.20119458 16.858685 4285892664
-7.2618308 0.2012458 16.875143 4285892664
-7.2308526 0.20131527 16.893423 4285892664
-7.2007542 0.20140307 16.913534 4285892664
-7.1715264 0.2015093 16.935493 4285892664
-7.1450305 0.20167065 16.962938 4285892664
-7.1184459 0.20183255 16.990473 4285892664
-7.0899091 0.20195821 17.014456 4285892664
-7.0640774 0.20213953 17.043993 4285892664
-7.0381513 0.20232153 17.073641 4285892664
-7.0139804 0.20254134 17.107088 4285892664
-6.9860129 0.20268753 17.133263 4285892664
-6.9579577 0.20283417 17.159515 4285892664
-6.9316511 0.20301874 17.189587 4285892664
-6.9052482 0.20320399 17.219769 4285892664
-6.8787465 0.20338993 17.250063 4285892664
-6.8530588 0.20359549 17.28236 4285892664
-6.8400416 0.20406833 17.341438 4285892664
-6.8214288 0.20442979 17.389462 4285892664
-6.7953887 0.20463933 17.422338 4285892664
-6.770154 0.20486905 17.457287 4285892664
-6.7439008 0.20508038 17.490438 4285892664
-6.7175398 0.20529255 17.523726 4285892664
-6.6604567 0.20484456 17.490677 4285892664
-8.8225775 0.25599375 17.897696 4285892664
-8.6816397 0.25370955 17.737347 4285892664
-8.5596685 0.25182837 17.606987 4285892664
-8.4707537 0.25067186 17.530849 4285892664
-8.3782597 0.24942449 17.44775 4285892664
-8.2824183 0.24809019 17.357969 4285892664
-8.1912928 0.24685116 17.275209 4285892664
-8.0958834 0.24550307 17.184092 4285892664
-8.0018635 0.2441746 17.094299 4285892664
-7.892365 0.24247681 16.97648 4285892664
-7.8034186 0.24123976 16.89327 4285892664
-7.727839 0.24030274 16.8326 4285892664
-7.6660442 0.23967992 16.795595 4285892664
-7.6106086 0.23920116 16.769432 4285892664
-7.5603633 0.23884098 16.752203 4285892664
-7.5200591 0.23871401 16.752623 4285892664
-7.4807606 0.23861036 16.754805 4285892664
-7.4414825 0.23850675 16.756985 4285892664
-7.4089561 0.23856547 16.7715 4285892664
-7.3783011 0.23867078 16.789572 4285892664
-7.3475862 0.23877627 16.807678 4285892664
-7.3158598 0.23885867 16.824043 4285892664
-7.2831326 0.23891786 16.838657 4285892664
-7.2494159 0.23895377 16.851507 4285892664
-7.2175412 0.23903647 16.867943 4285892664
-7.1865497 0.23914275 16.886196 4285892664
-7.1573648 0.23929615 16.908075 4285892664
-7.1309013 0.23952055 16.935415 4285892664
-7.105278 0.23976932 16.964657 4285892664
-7.0795617 0.24001899 16.994005 4285892664
-7.054678 0.24029338 17.025288 4285892664
-7.0306196 0.2405927 17.058523 4285892664
-7.0083075 0.24094126 17.095589 4285892664
-6.9821982 0.24119517 17.125422 4285892664
-6.9559922 0.24145003 17.155365 4285892664
-6.9306078 0.24173005 17.187286 4285892664
-6.9023747 0.24193826 17.213713 4285892664
-6.8749657 0.2421715 17.2421 4285892664
-6.8492856 0.24245444 17.274364 4285892664
-6.8353472 0.24305829 17.33147 4285892664
-6.8167329 0.24354282 17.379429 4285892664
-6.7925253 0.24388087 17.416115 4285892664
-6.7672949 0.24419549 17.451033 4285892664
-6.7465005 0.24463706 17.49584 4285892664
-6.7310457 0.24523295 17.552685 4285892664
-6.6828108 0.24492019 17.539045 4285892664
-9.1121645 0.30316296 18.225489 4285892664
-8.9277744 0.29925954 17.997076 4285892664
-8.7744341 0.29616162 17.817629 4285892664
-8.6397552 0.29354331 17.66729 4285892664
-8.5307474 0.29160297 17.558283 4285892664
-8.4423227 0.29021037 17.48271 4285892664
-8.3503408 0.28870702 17.400217 4285892664
-8.2550316 0.28709772 17.311089 4285892664
-8.1644039 0.28560403 17.228928 4285892664
-8.069519 0.28397742 17.138462 4285892664
-7.973875 0.2823143 17.045607 4285892664
-7.8681698 0.28035125 16.934126 4285892664
-7.7806997 0.27888757 16.853268 4285892664
-7.7074857 0.27781704 16.796543 4285892664
-7.648922 0.27715677 16.765059 4285892664
-7.5946469 0.27661416 16.740791 4285892664
-7.5445418 0.27618754 16.723654 4285892664
-7.5072541 0.27613038 16.729347 4285892664
-7.4719038 0.27612996 16.738554 4285892664
-7.437499 0.27615789 16.749523 4285892664
-7.4069095 0.27629951 16.767551 4285892664
-7.3772197 0.27646989 16.787382 4285892664
-7.3474636 0.27664062 16.807255 4285892664
-7.3147855 0.27672601 16.821844 4285892664
-7.2811141 0.27678293 16.834675 4285892664
-7.2483492 0.27686852 16.8493 4285892664
-7.2164779 0.27698287 16.865732 4285892664
-7.1854897 0.27712613 16.883982 4285892664
-7.155375 0.27729845 16.90406 4285892664
-7.1298461 0.2776154 16.933187 4285892664
-7.1042252 0.27793345 16.962421 4285892664
-7.0785098 0.27825269 16.991762 4285892664
-7.0545535 0.27863145 17.024858 4285892664
-7.0314207 0.27904108 17.059929 4285892664
-7.0081825 0.27945256 17.095158 4285892664
-6.9829955 0.27980682 17.126842 4285892664
-6.9586277 0.28019214 17.160513 4285892664
-6.9341574 0.28057909 17.194326 4285892664
-6.9059134 0.28084823 17.220778 4285892664
-6.8784947 0.28114817 17.249193 4285892664
-6.8518949 0.28147915 17.279598 4285892664
-6.833396 0.28208309 17.327227 4285892664
-6.8102207 0.28253892 17.36558 4285892664
-6.7832937 0.28287497 17.396431 4285892664
-6.7571726 0.28324288 17.429325 4285892664
-6.7381964 0.28385821 17.477884 4285892664
-6.7281861 0.28478754 17.54635 4285892664
-6.6890068 0.28472748 17.552334 4285892664
-6.6229849 0.28374043 17.499643 4285892664
-9.2332582 0.34822047 18.347881 4285892664
-9.0678005 0.34424764 18.152462 4285892664
-8.8837862 0.33964652 17.924286 4285892664
-8.7355433 0.33614951 17.752905 4285892664
-8.6091938 0.33332524 17.61611 4285892664
-8.5032196 0.33113408 17.511913 4285892664
-8.4117584 0.32939446 17.430977 4285892664
-8.3157492 0.32749027 17.341381 4285892664
-8.2188559 0.32553947 17.249235 4285892664
-8.122283 0.32358095 17.156555 4285892664
-8.0249863 0.32158008 17.061537 4285892664
-7.9281211 0.31957465 16.966145 4285892664
-7.8306832 0.31753102 16.868624 4285892664
-7.7499886 0.31603083 16.799269 4285892664
-7.6802311 0.31488588 16.748329 4285892664
-7.6219645 0.31412038 16.717102 4285892664
-7.5699167 0.31356001 16.696535 4285892664
-7.5219731 0.31313536 16.683018 4285892664
-7.4896455 0.31324533 16.697418 4285892664
-7.4592042 0.31342232 16.715338 4285892664
-7.4287033 0.31359968 16.733292 4285892664
-7.400063 0.31384456 16.754801 4285892664
-7.3703938 0.31405637 16.774597 4285892664
-7.3406591 0.31426865 16.794437 4285892664
-7.3089581 0.31441385 16.810776 4285892664
-7.2781501 0.31459311 16.828918 4285892664
-7.247283 0.31477273 16.847095 4285892664
-7.2163553 0.31495267 16.865309 4285892664
-7.1863031 0.31516698 16.885347 4285892664
-7.1571183 0.31541586 16.907225 4285892664
-7.1315861 0.31580216 16.936367 4285892664
-7.1068907 0.31622419 16.967424 4285892664
-7.082099 0.31664786 16.998604 4285892664
-7.0590639 0.31714243 17.033562 4285892664
-7.0349979 0.31760445 17.066839 4285892664
-7.0108309 0.31806847 17.10026 4285892664
-6.9865608 0.31853443 17.133821 4285892664
-6.963109 0.31903756 17.169388 4285892664
-6.9413929 0.31961364 17.208862 4285892664
-6.9149661 0.32001519 17.239126 4285892664
-6.8875241 0.32038265 17.267616 4285892664
-6.8609023 0.32078707 17.298098 4285892664
-6.8369207 0.32130057 17.33441 4285892664
-6.8100939 0.32170838 17.365143 4285892664
-6.7813492 0.32204551 17.392149 4285892664
-6.7570453 0.32256481 17.428886 4285892664
-6.7362547 0.32323232 17.473558 4285892664
-6.7226014 0.32419732 17.534143 4285892664
-6.6852632 0.32421085 17.544043 4285892664
-6.6246395 0.3232719 17.503099 4285892664
-9.3650513 0.39441499 18.486277 4285892664
-9.202899 0.38999394 18.29809 4285892664
-9.0304918 0.38515633 18.091013 4285892664
-8.8516941 0.38003871 17.871119 4285892664
-8.710597 0.37626889 17.711306 4285892664
-8.5872936 0.37312576 17.579369 4285892664
-8.4817781 0.37061796 17.475746 4285892664
-8.384901 0.36841112 17.38549 4285892664
-8.2859955 0.36610717 17.290745 4285892664
-8.186347 0.36375341 17.193632 4285892664
-8.0860586 0.36135304 17.094284 4285892664
-7.9862962 0.35894996 16.994678 4285892664
-7.891264 0.35670581 16.902094 4285892664
-7.8007355 0.35461423 16.816254 4285892664
-7.7245712 0.35306045 16.754541 4285892664
-7.6581507 0.35187209 16.709232 4285892664
-7.6011095 0.35104039 16.679958 4285892664
-7.5492554 0.35040542 16.659525 4285892664
-7.502449 0.34996462 16.647837 4285892664
-7.475018 0.35029167 16.670862 4285892664
-7.4475117 0.35061958 16.693949 4285892664
-7.41993 0.35094842 16.717102 4285892664
-7.3913136 0.35123944 16.738562 4285892664
-7.3616719 0.3514924 16.758316 4285892664
-7.331965 0.35174593 16.778114 4285892664
-7.3012438 0.35196105 16.796186 4285892664
-7.270463 0.35217658 16.814295 4285892664
-7.2415051 0.3524707 16.835993 4285892664
-7.2124743 0.35276559 16.857746 4285892664
-7.1843076 0.35310051 16.881344 4285892664
-7.1551285 0.35339695 16.90321 4285892664
-7.1314626 0.35393119 16.935942 4285892664
-7.107698 0.35446769 16.968809 4285892664
-7.0838332 0.35500646 17.001816 4285892664
-7.0607948 0.35558751 17.036789 4285892664
-7.0367265 0.35613099 17.070084 4285892664
-7.0125561 0.35667679 17.103521 4285892664
-6.9892063 0.35726538 17.138952 4285892664
-6.9666739 0.3578974 17.176411 4285892664
-6.9458766 0.35861433 17.217802 4285892664
-6.9203596 0.35912952 17.249989 4285892664
-6.8947411 0.35964683 17.282305 4285892664
-6.8671856 0.3600834 17.310947 4285892664
-6.8404503 0.36056301 17.341599 4285892664
-6.8127022 0.36100274 17.370449 4285892664
-6.7848582 0.361444 17.399397 4285892664
-6.7605486 0.36205456 17.436172 4285892664
-6.7379408 0.36275235 17.477003 4285892664
-6.7179341 0.36358097 17.523912 4285892664
-6.6806221 0.36360592 17.533802 4285892664
-6.6254029 0.362784 17.504606 4285892664
-6.5555239 0.36125422 17.442671 4285892664
-9.5315533 0.44287044 18.679186 4285892664
-9.3550291 0.43732008 18.469751 4285892664
-9.1822748 0.43187472 18.264185 4285892664
-9.006629 0.4262588 18.051622 4285892664
-8.8350391 0.4207601 17.843409 4285892664
-8.6981134 0.41666511 17.690372 4285892664
-8.5763226 0.41317004 17.560844 4285892664
-8.4663258 0.41014206 17.449621 4285892664
-8.3639793 0.40741128 17.350008 4285892664
-8.2598457 0.40457836 17.246218 4285892664
-8.1585217 0.40183926 17.146008 4285892664
-8.0544901 0.3989571 17.039993 4285892664
-7.95539 0.39626136 16.941231 4285892664
-7.8609781 0.39374417 16.849426 4285892664
-7.7771301 0.39166585 16.774931 4285892664
-7.7053418 0.39009872 16.720655 4285892664
-7.6431341 0.38894072 16.682577 4285892664
-7.5852718 0.38796505 16.651701 4285892664
-7.5335646 0.3872554 16.631372 4285892664
-7.4868827 0.386765 16.619747 4285892664
-7.463336 0.38731563 16.649612 4285892664
-7.4377785 0.38778117 16.676111 4285892664
-7.4111781 0.38820449 16.700951 4285892664
-7.3816319 0.38849762 16.720615 4285892664
-7.351069 0.38874751 16.738567 4285892664
-7.3204474 0.38899791 16.756554 4285892664
-7.2888217 0.38920474 16.772814 4285892664
-7.2599664 0.38954422 16.794399 4285892664
-7.2319789 0.38992882 16.817814 4285892664
-7.2048492 0.39035887 16.843071 4285892664
-7.1776376 0.39079019 16.868406 4285892664
-7.1503415 0.39122289 16.89382 4285892664
-7.1276135 0.39188084 16.928308 4285892664
-7.1057134 0.39258677 16.964762 4285892664
-7.081851 0.39320561 16.997749 4285892664
-7.0597429 0.39391792 17.034533 4285892664
-7.036602 0.39458796 17.069654 4285892664
-7.0133562 0.39526108 17.104937 4285892664
-6.9890814 0.39589122 17.138521 4285892664
-6.9674716 0.39666268 17.177843 4285892664
-6.9475965 0.397531 17.221119 4285892664
-6.922997 0.39817077 17.255209 4285892664
-6.8973722 0.39876643 17.287548 4285892664
-6.871645 0.3993645 17.320019 4285892664
-6.8448982 0.39991775 17.350708 4285892664
-6.8180513 0.40047303 17.381512 4285892664
-6.792016 0.40107799 17.414358 4285892664
-6.7676945 0.40178084 17.45121 4285892664
-6.7414446 0.40239108 17.484341 4285892664
-6.7159925 0.40305188 17.51956 4285892664
-6.6750865 0.40289572 17.521622 4285892664
-6.6243839 0.40221167 17.502216 4285892664
-6.5641794 0.40100598 17.461559 4285892664
-9.6487541 0.49022305 18.790813 4285892664
-9.4994106 0.48531511 18.627026 4285892664
-9.3309803 0.47948286 18.430462 4285892664
-9.1617479 0.47355959 18.23044 4285892664
-8.98944 0.46743828 18.023178 4285892664
-8.8222418 0.46149853 17.822063 4285892664
-8.6893587 0.45711371 17.675617 4285892664
-8.5677795 0.45322075 17.546371 4285892664
-8.4556236 0.44973764 17.431454 4285892664
-8.3489017 0.44648024 17.324375 4285892664
-8.2428427 0.44322366 17.217186 4285892664
-8.1418715 0.44018057 17.117424 4285892664
-8.0371294 0.43692604 17.010036 4285892664
-7.940496 0.43403384 16.915363 4285892664
-7.8494773 0.43138754 16.829296 4285892664
-7.7698908 0.42927611 16.762114 4285892664
-7.7012105 0.42768157 16.713213 4285892664
-7.6400414 0.42644364 16.676924 4285892664
-7.5802541 0.42526254 16.642609 4285892664
-7.5266533 0.42437956 16.618858 4285892664
-7.4800253 0.42383876 16.607262 4285892664
-7.4564886 0.42446011 16.637074 4285892664
-7.4319024 0.42503518 16.665262 4285892664
-7.4043589 0.42546582 16.688324 4285892664
-7.3757868 0.42584869 16.709702 4285892664
-7.3452435 0.42613447 16.727629 4285892664
-7.3155885 0.42646989 16.747347 4285892664
-7.2830372 0.42665848 16.761827 4285892664
-7.2532592 0.4269951 16.781618 4285892664
-7.2252893 0.42743126 16.804991 4285892664
-7.1981759 0.42791814 16.830204 4285892664
-7.1719131 0.42845625 16.857277 4285892664
-7.1464925 0.42904601 16.88623 4285892664
-7.1237688 0.42978808 16.920683 4285892664
-7.1000142 0.43048319 16.953482 4285892664
-7.0752325 0.43113077 16.984604 4285892664
-7.0531306 0.43193296 17.02132 4285892664
-7.0299973 0.43268806 17.056377 4285892664
-7.005837 0.43339542 17.089752 4285892664
-6.9806514 0.4340544 17.121416 4285892664
-6.9590473 0.43492228 17.160645 4285892664
-6.9382534 0.43584645 17.201944 4285892664
-6.9136696 0.43656722 17.235945 4285892664
-6.888063 0.43723878 17.2682 4285892664
-6.8632689 0.43796551 17.302481 4285892664
-6.839282 0.43874806 17.338818 4285892664
-6.8142724 0.43948129 17.373404 4285892664
-6.7900658 0.44027087 17.410067 4285892664
-6.7602935 0.44074383 17.435293 4285892664
-6.7295308 0.44116473 17.458654 4285892664
-6.6986876 0.4415867 17.482077 4285892664
-6.6596904 0.44152695 17.488033 4285892664
-6.6144667 0.44109255 17.480381 4285892664
-6.5649323 0.44039252 17.463055 4285892664
-9.6129742 0.53269315 18.733082 4285892664
-9.4617414 0.52716953 18.565945 4285892664
-9.2973061 0.52092266 18.375551 4285892664
-9.1305313 0.51449805 18.179256 4285892664
-8.9618988 0.507918 17.977757 4285892664
-8.7956371 0.50139868 17.77795 4285892664
-8.6659107 0.49671417 17.636507 4285892664
-8.5437126 0.49237797 17.506021 4285892664
-8.4297676 0.48843318 17.387892 4285892664
-8.3213224 0.48474041 17.277679 4285892664
-8.2158651 0.48117039 17.171257 4285892664
-8.1154547 0.47783446 17.072203 4285892664
-8.0155687 0.47449437 16.972889 4285892664
-7.9235644 0.47154507 16.885986 4285892664
-7.8390427 0.46897087 16.81101 4285892664
-7.7626653 0.46681321 16.749319 4285892664
-7.6960826 0.4651683 16.704023 4285892664
-7.6349721 0.46380711 16.667791 4285892664
-7.575242 0.46250874 16.633528 4285892664
-7.5216899 0.46153954 16.609816 4285892664
-7.4731812 0.46084145 16.594801 4285892664
-7.4506121 0.46158686 16.626286 4285892664
-7.4260359 0.46222779 16.654432 4285892664
-7.3985071 0.46270925 16.67746 4285892664
-7.369 0.46308395 16.697063 4285892664
-7.3403764 0.46351364 16.718456 4285892664
-7.3107357 0.46389014 16.73815 4285892664
-7.2782044 0.46410447 16.752615 4285892664
-7.2475028 0.46442789 16.77062 4285892664
-7.2204833 0.46497005 16.795725 4285892664
-7.1933827 0.46551391 16.820908 4285892664
-7.1671295 0.46611434 16.847946 4285892664
-7.1417184 0.46677184 16.876863 4285892664
-7.1189995 0.46759766 16.91127 4285892664
-7.0933981 0.46826053 16.94042 4285892664
-7.0667777 0.4688701 16.967863 4285892664
-7.0437598 0.46970537 17.002672 4285892664
-7.0197167 0.47048822 17.03581 4285892664
-6.9955711 0.47127438 17.06909 4285892664
-6.9704051 0.47200727 17.100664 4285892664
-6.9478912 0.47291362 17.137924 4285892664
-6.9271026 0.4739387 17.179094 4285892664
-6.9025364 0.47473949 17.212986 4285892664
-6.8787794 0.47560138 17.248905 4285892664
-6.8549142 0.47646722 17.28499 4285892664
-6.831851 0.47739521 17.323141 4285892664
-6.8095865 0.47838622 17.363392 4285892664
-6.7862964 0.47932357 17.401928 4285892664
-6.7538161 0.47967586 17.421341 4285892664
-6.7203674 0.47996986 17.43886 4285892664
-6.6859627 0.48020533 17.454473 4285892664
-6.6497221 0.48032287 17.46623 4285892664
-6.6098995 0.48020416 17.470238 4285892664
-6.566565 0.4798494 17.46649 4285892664
-6.5180564 0.47914216 17.451145 4285892664
-9.717762 0.58023161 18.823933 4285892664
-9.5730724 0.5745917 18.66873 4285892664
-9.4201088 0.56844026 18.498466 4285892664
-9.2583628 0.56174195 18.312088 4285892664
-9.0915251 0.55469579 18.11536 4285892664
-8.9216299 0.54741138 17.911459 4285892664
-8.7554893 0.54027092 17.711504 4285892664
-8.625597 0.53512412 17.569435 4285892664
-8.5043945 0.53042507 17.440252 4285892664
-8.3902044 0.52608383 17.32136 4285892664
-8.2837639 0.52214819 17.214167 4285892664
-8.1802244 0.51834309 17.110655 4285892664
-8.0827198 0.51485276 17.01622 4285892664
-7.9909434 0.51166403 16.930492 4285892664
-7.9067078 0.50888795 16.856739 4285892664
-7.8296633 0.50651002 16.794556 4285892664
-7.7564659 0.50433749 16.738312 4285892664
-7.6899633 0.50254351 16.693098 4285892664
-7.6299105 0.50111914 16.65867 4285892664
-7.5702372 0.49970376 16.62446 4285892664
-7.5157671 0.49858996 16.599062 4285892664
-7.4682665 0.49789003 16.585794 4285892664
-7.4457026 0.49871114 16.617241 4285892664
-7.4201784 0.49935907 16.643621 4285892664
-7.3926649 0.49989119 16.666615 4285892664
-7.3631763 0.50030655 16.68619 4285892664
-7.334569 0.50078207 16.707552 4285892664
-7.3068347 0.50131816 16.730719 4285892664
-7.2743177 0.50155818 16.745171 4285892664
-7.2445674 0.50197721 16.764917 4285892664
-7.21662 0.50251669 16.788239 4285892664
-7.1895275 0.5031175 16.813396 4285892664
-7.1632833 0.50378031 16.840408 4285892664
-7.1378789 0.50450552 16.869293 4285892664
-7.1133094 0.50529397 16.900078 4285892664
-7.0858693 0.50590324 16.925583 4285892664
-7.0565009 0.50639266 16.947554 4285892664
-7.0316553 0.50718856 16.978638 4285892664
-7.006712 0.50798762 17.009844 4285892664
-6.9825864 0.50885135 17.043003 4285892664
-6.9574442 0.50965691 17.074463 4285892664
-6.9358582 0.51071399 17.113434 4285892664
-6.9150753 0.51183891 17.154461 4285892664
-6.8914413 0.51278168 17.190105 4285892664
-6.8686113 0.51379174 17.227789 4285892664
-6.8474913 0.51493335 17.26943 4285892664
-6.8253469 0.51601756 17.309399 4285892664
-6.8030877 0.51710725 17.349575 4285892664
-6.780714 0.51820272 17.389957 4285892664
-6.7482557 0.51859385 17.409342 4285892664
-6.7139311 0.5188567 17.424908 4285892664
-6.6786604 0.51905537 17.438562 4285892664
-6.6442413 0.51931894 17.454168 4285892664
-6.6088848 0.51951808 17.467857 4285892664
-6.5708423 0.5195232 17.475742 4285892664
-6.5231652 0.51881707 17.462307 4285892664
-9.6965828 0.62336397 18.789827 4285892664
-9.5466156 0.61691487 18.625975 4285892664
-9.3915758 0.61010003 18.452143 4285892664
-9.222497 0.60237014 18.253624 4285892664
-9.0555115 0.59469569 18.056353 4285892664
-8.8881273 0.58692461 17.85626 4285892664
-8.7255983 0.57937902 17.661974 4285892664
-8.5952873 0.57375371 17.51895 4285892664
-8.4736576 0.56861424 17.388788 4285892664
-8.3601828 0.56393486 17.270821 4285892664
-8.2543955 0.55969274 17.164459 4285892664
-8.1536779 0.55572933 17.065458 4285892664
-8.0577812 0.55203307 16.97352 4285892664
-7.971755 0.54892921 16.897411 4285892664
-7.894084 0.54632962 16.834784 4285892664
-7.8213325 0.54402101 16.779917 4285892664
-7.7482567 0.54166883 16.723806 4285892664
-7.6808639 0.53966266 16.676956 4285892664
-7.6179614 0.53792983 16.637421 4285892664
-7.5603704 0.53652829 16.606779 4285892664
-7.5088902 0.53551596 16.586611 4285892664
-7.4633584 0.53488803 16.576803 4285892664
-7.4398437 0.53572088 16.606485 4285892664
-7.4133782 0.53636539 16.6311 4285892664
-7.3849311 0.53688383 16.652321 4285892664
-7.3545184 0.53727531 16.67012 4285892664
-7.3249912 0.53773183 16.689695 4285892664
-7.2972827 0.5383181 16.712807 4285892664
-7.2648034 0.53858334 16.727226 4285892664
-7.2350836 0.53904271 16.746927 4285892664
-7.2080951 0.53969741 16.771952 4285892664
-7.1810231 0.54035419 16.797052 4285892664
-7.1547976 0.54107809 16.824001 4285892664
-7.1284833 0.54180443 16.851042 4285892664
-7.1039295 0.54266447 16.881748 4285892664
-7.0755916 0.54326433 16.905394 4285892664
-7.0453372 0.54373401 16.925508 4285892664
-7.0205107 0.54460162 16.956497 4285892664
-6.9946723 0.54540628 16.985792 4285892664
-6.9696527 0.54628056 17.017019 4285892664
-6.945446 0.54722518 17.050196 4285892664
-6.9229579 0.54830843 17.087193 4285892664
-6.9030919 0.54959977 17.129919 4285892664
-6.8812938 0.55076247 17.169165 4285892664
-6.8593831 0.55193102 17.208609 4285892664
-6.8382688 0.55317432 17.250139 4285892664
-6.8152246 0.55428624 17.288109 4285892664
-6.7938814 0.55554235 17.33007 4285892664
-6.7724214 0.55680531 17.372259 4285892664
-6.7408996 0.55730474 17.393522 4285892664
-6.708406 0.55773526 17.412907 4285892664
-6.6740575 0.55802631 17.428473 4285892664
-6.6396594 0.55831778 17.444059 4285892664
-6.6043258 0.55853927 17.457733 4285892664
-6.5671902 0.55862033 17.467546 4285892664
-6.5221648 0.55806887 17.459934 4285892664
-9.8176813 0.67270344 18.905764 4285892664
-9.6740065 0.66620415 18.753492 4285892664
-9.5246611 0.65927672 18.590452 4285892664
-9.367445 0.65177178 18.412926 4285892664
-9.1923542 0.64302564 18.204451 4285892664
-9.0263634 0.63479662 18.008547 4285892664
-8.8612337 0.62654704 17.811905 4285892664
-8.703289 0.61869699 17.624945 4285892664
-8.5723696 0.61257744 17.480721 4285892664
-8.4501429 0.60698283 17.349363 4285892664
-8.3383532 0.60203856 17.234013 4285892664
-8.2330379 0.59748548 17.12825 4285892664
-8.1327629 0.59323162 17.029806 4285892664
-8.0383501 0.58933777 16.940203 4285892664
-7.9558187 0.58622301 16.8699 4285892664
-7.8804674 0.58357418 16.811119 4285892664
-7.8109756 0.5813064 16.761768 4285892664
-7.7360377 0.57863635 16.702318 4285892664
-7.668807 0.57648063 16.655634 4285892664
-7.606051 0.57461905 16.61624 4285892664
-7.5515003 0.57332069 16.590866 4285892664
-7.5020261 0.5723713 16.574183 4285892664
-7.4575009 0.57176697 16.566111 4285892664
-7.4339948 0.57266986 16.595749 4285892664
-7.4065905 0.57330072 16.618601 4285892664
-7.3781629 0.57386428 16.639788 4285892664
-7.3458824 0.57415277 16.654093 4285892664
-7.3163829 0.57464921 16.673626 4285892664
-7.2877564 0.57521617 16.694944 4285892664
-7.2562523 0.57557595 16.711077 4285892664
-7.2265592 0.57607555 16.730734 4285892664
-7.1986604 0.57671589 16.753946 4285892664
-7.1725397 0.57749808 16.780746 4285892664
-7.1454062 0.57821256 16.805868 4285892664
-7.1191139 0.57899976 16.832842 4285892664
-7.0936546 0.57986027 16.861685 4285892664
-7.0653453 0.58051109 16.885269 4285892664
-7.0342097 0.58095044 16.903536 4285892664
-7.0084906 0.5818181 16.932631 4285892664
-6.9817653 0.58261734 16.960022 4285892664
-6.9558601 0.58349115 16.989321 4285892664
-6.9316754 0.58451217 17.022371 4285892664
-6.9101086 0.58575475 17.061056 4285892664
-6.8902459 0.58714926 17.103624 4285892664
-6.8684573 0.58840519 17.142723 4285892664
-6.8474636 0.58974117 17.183887 4285892664
-6.8263559 0.59108436 17.225275 4285892664
-6.8033257 0.59228617 17.263113 4285892664
-6.7828932 0.59371787 17.306826 4285892664
-6.7632465 0.59523308 17.352697 4285892664
-6.7326598 0.5958513 17.375822 4285892664
-6.7002001 0.59632003 17.395164 4285892664
-6.6667824 0.59671408 17.412621 4285892664
-6.6324191 0.59703308 17.428179 4285892664
-6.5971217 0.59727669 17.441828 4285892664
-6.5617843 0.59752053 17.455492 4285892664
-6.5194187 0.5971576 17.453693 4285892664
-6.4693203 0.59611458 17.434536 4285892664
-9.7809267 0.71483332 18.847075 4285892664
-9.6515417 0.70883667 18.717335 4285892664
-9.5056992 0.70163697 18.559738 4285892664
-9.3462429 0.69341636 18.378439 4285892664
-9.16782 0.68378383 18.164379 4285892664
-9.0026369 0.67499715 17.969587 4285892664
-8.8420906 0.66645724 17.780264 4285892664
-8.689661 0.65841597 17.602238 4285892664
-8.5579147 0.65178216 17.456522 4285892664
-8.4360485 0.64579731 17.325642 4285892664
-8.3234453 0.64042616 17.208803 4285892664
-8.2184525 0.63555729 17.103451 4285892664
-8.1173916 0.63092899 17.003544 4285892664
-8.0243435 0.6268447 16.916126 4285892664
-7.9409971 0.62343746 16.844299 4285892664
-7.8658667 0.62060696 16.785761 4285892664
-7.7965732 0.61818415 16.736616 4285892664
-7.722856 0.61540598 16.679153 4285892664
-7.6548114 0.61302775 16.630917 4285892664
-7.5941801 0.6111877 16.595129 4285892664
-7.5416837 0.60994875 16.573278 4285892664
-7.494215 0.60908258 16.560068 4285892664
-7.451654 0.60858554 16.555435 4285892664
-7.4272041 0.60948455 16.583313 4285892664
-7.3998165 0.61016524 16.606127 4285892664
-7.371407 0.61077374 16.627277 4285892664
-7.3382106 0.61101311 16.639832 4285892664
-7.3077946 0.61147541 16.657597 4285892664
-7.2782569 0.6120128 16.67713 4285892664
-7.2458553 0.61232799 16.691486 4285892664
-7.2161956 0.61286741 16.711092 4285892664
-7.1892519 0.61363226 16.735992 4285892664
-7.1622267 0.61439949 16.760969 4285892664
-7.135119 0.61516911 16.786022 4285892664
-7.1088495 0.61601651 16.81292 4285892664
-7.0834107 0.61694252 16.841684 4285892664
-7.05513 0.61764383 16.865204 4285892664
-7.0231209 0.61804265 16.881638 4285892664
-6.9965134 0.6188997 16.90885 4285892664
-6.9689093 0.61968303 16.934353 4285892664
-6.9421258 0.62054563 16.96174 4285892664
-6.9179626 0.62164235 16.994663 4285892664
-6.8964071 0.62297618 17.033195 4285892664
-6.8765469 0.62447262 17.075596 4285892664
-6.8547702 0.62582082 17.114542 4285892664
-6.8337841 0.62725455 17.155542 4285892664
-6.8117833 0.62861693 17.194897 4285892664
-6.78967 0.62998629 17.234453 4285892664
-6.7701421 0.63160259 17.279879 4285892664
-6.7522969 0.63338959 17.329384 4285892664
-6.7217484 0.63405597 17.352438 4285892664
-6.6902275 0.6346432 17.373636 4285892664
-6.6577439 0.63515073 17.392965 4285892664
-6.6225376 0.63541573 17.406567 4285892664
-6.588172 0.63576227 17.422106 4285892664
-6.5537562 0.63610929 17.43767 4285892664
-6.5166759 0.63621259 17.447458 4285892664
-6.4683304 0.63525921 17.432171 4285892664
-9.8677015 0.7625435 18.907763 4285892664
-9.7535124 0.75730354 18.803234 4285892664
-9.6350985 0.75170195 18.690798 4285892664
-9.4925766 0.74425101 18.538401 4285892664
-9.3335142 0.73549163 18.357634 4285892664
-9.1541882 0.72512513 18.142006 4285892664
-8.9881487 0.7156657 17.945704 4285892664
-8.8280716 0.70656991 17.757029 4285892664
-8.6736383 0.69781876 17.575581 4285892664
-8.5375767 0.69039339 17.422573 4285892664
-8.4127512 0.68376309 17.286583 4285892664
-8.2995596 0.67797023 17.16855 4285892664
-8.1928768 0.67262799 17.060135 4285892664
-8.092351 0.66771555 16.960905 4285892664
-7.9997835 0.66338086 16.874075 4285892664
-7.916853 0.65976506 16.802731 4285892664
-7.8420825 0.65676177 16.744587 4285892664
-7.7731123 0.65419167 16.695776 4285892664
-7.7047305 0.65164346 16.647381 4285892664
-7.6408696 0.64943439 16.606297 4285892664
-7.5833225 0.64771497 16.575804 4285892664
-7.5338264 0.6466341 16.559158 4285892664
-7.4873791 0.64579213 16.547691 4285892664
-7.4448643 0.64526558 16.543074 4285892664
-7.4194751 0.64615029 16.569191 4285892664
-7.392107 0.64688027 16.591959 4285892664
-7.364665 0.64761239 16.614792 4285892664
-7.3314962 0.64787179 16.627327 4285892664
-7.3011031 0.64836901 16.645061 4285892664
-7.2725205 0.64902574 16.666298 4285892664
-7.2410731 0.64944565 16.682371 4285892664
-7.212358 0.65010518 16.703697 4285892664
-7.1854234 0.65092611 16.728573 4285892664
-7.1584072 0.65174955 16.753525 4285892664
-7.1313086 0.65257549 16.778551 4285892664
-7.1050467 0.65348458 16.805422 4285892664
-7.0796156 0.65447772 16.834158 4285892664
-7.0504308 0.65514964 16.855873 4285892664
-7.0175281 0.65549815 16.870502 4285892664
-6.9900255 0.65633559 16.895884 4285892664
-6.9624376 0.6571756 16.921343 4285892664
-6.9347663 0.65801817 16.946878 4285892664
-6.910615 0.65919238 16.979733 4285892664
-6.8890648 0.66061956 17.018185 4285892664
-6.8683062 0.66213709 17.058664 4285892664
-6.8465357 0.66357917 17.097517 4285892664
-6.8246551 0.66502857 17.136568 4285892664
-6.8035607 0.66656977 17.177681 4285892664
-6.781455 0.66803443 17.217142 4285892664
-6.7619271 0.66976255 17.262459 4285892664
-6.7458739 0.67184466 17.315639 4285892664
-6.7144532 0.67247385 17.336748 4285892664
-6.6811776 0.67293191 17.354088 4285892664
-6.6469569 0.67330426 17.369543 4285892664
-6.6118054 0.67359072 17.383106 4285892664
-6.5783687 0.67405069 17.400522 4285892664
-6.5466242 0.674685 17.421816 4285892664
-6.5139346 0.67523378 17.441229 4285892664
-6.4664769 0.67430592 17.427883 4285892664
-9.9584017 0.81093699 18.973925 4285892664
-9.8445044 0.80542761 18.870811 4285892664
-9.7337732 0.8001169 18.771593 4285892664
-9.6201878 0.79453182 18.666712 4285892664
-9.4794893 0.78674281 18.517124 4285892664
-9.3194294 0.77733678 18.334639 4285892664
-9.1405993 0.76633835 18.119701 4285892664
-8.9750071 0.75630224 17.924019 4285892664
-8.8153543 0.74665153 17.735929 4285892664
-8.6601086 0.7372672 17.553034 4285892664
-8.5208807 0.72910148 17.394663 4285892664
-8.3930368 0.72179168 17.253496 4285892664
-8.2780609 0.71547294 17.132299 4285892664
-8.1707563 0.7097286 17.022646 4285892664
-8.0696192 0.70444214 16.922178 4285892664
-7.9774866 0.69985771 16.83588 4285892664
-7.8959665 0.69612104 16.766747 4285892664
-7.8215089 0.69294465 16.708944 4285892664
-7.7518101 0.69014132 16.658676 4285892664
-7.6866937 0.68770164 16.615765 4285892664
-7.6269808 0.68570137 16.581768 4285892664
-7.5734696 0.68421638 16.558249 4285892664
-7.5259852 0.68323922 16.545069 4285892664
-7.4815125 0.68251503 16.537043 4285892664
-7.4390378 0.68195879 16.532434 4285892664
-7.4136596 0.68290287 16.558516 4285892664
-7.3863068 0.68368262 16.581251 4285892664
-7.3598218 0.68454838 16.605768 4285892664
-7.3266735 0.68482786 16.618292 4285892664
-7.2962966 0.68536013 16.636005 4285892664
-7.268662 0.68614662 16.658947 4285892664
-7.2372279 0.68659687 16.675005 4285892664
-7.2094517 0.68738675 16.698051 4285892664
-7.1825233 0.68826389 16.722908 4285892664
-7.1564369 0.68922889 16.749594 4285892664
-7.129343 0.6901117 16.774609 4285892664
-7.103086 0.69108289 16.801466 4285892664
-7.0767407 0.69205731 16.828413 4285892664
-7.0466509 0.69268966 16.848331 4285892664
-7.0137644 0.69306409 16.862949 4285892664
-6.984457 0.69378525 16.884731 4285892664
-6.9568844 0.69468194 16.910151 4285892664
-6.9292264 0.69558138 16.935648 4285892664
-6.9050841 0.69683337 16.968452 4285892664
-6.8826389 0.69826639 17.005026 4285892664
-6.8618827 0.69988292 17.045429 4285892664
-6.8401179 0.70141929 17.084211 4285892664
-6.8182425 0.70296353 17.12319 4285892664
-6.7962556 0.70451558 17.162367 4285892664
-6.7741561 0.70607555 17.201744 4285892664
-6.7546287 0.70791543 17.246964 4285892664
-6.7376719 0.71004015 17.298134 4285892664
-6.7044969 0.71052927 17.315397 4285892664
-6.6703763 0.71092767 17.330788 4285892664
-6.6344404 0.71114331 17.34239 4285892664
-6.5993519 0.71145087 17.355911 4285892664
-6.5659719 0.71194249 17.373268 4285892664
-6.5360193 0.7128033 17.398323 4285892664
-6.5059805 0.71366662 17.42345 4285892664
-6.459456 0.71277678 17.412066 4285892664
-6.3968887 0.71014792 17.364405 4285892664
-10.149363 0.86798716 19.196245 4285892664
-9.9488869 0.8550722 18.958685 4285892664
-9.8336411 0.8491168 18.853365 4285892664
-9.721612 0.84337538 18.751999 4285892664
-9.608264 0.83747041 18.6474 4285892664
-9.4664402 0.82911289 18.495909 4285892664
-9.3039999 0.81893301 18.309477 4285892664
-9.1270514 0.80742425 18.097466 4285892664
-8.9619055 0.79681492 17.902399 4285892664
-8.8039293 0.78672016 17.716951 4285892664
-8.6490479 0.7767961 17.534559 4285892664
-8.5066061 0.76785493 17.370768 4285892664
-8.3768511 0.75993222 17.226292 4285892664
-8.2600288 0.75306451 17.101856 4285892664
-8.1509438 0.74681038 16.989042 4285892664
-8.0502243 0.74123454 16.889103 4285892664
-7.9584608 0.73639935 16.803259 4285892664
-7.8762264 0.73236692 16.732725 4285892664
-7.8010478 0.72892749 16.673496 4285892664
-7.7316318 0.72597343 16.623524 4285892664
-7.6697345 0.72367126 16.586025 4285892664
-7.6131449 0.72182941 16.557335 4285892664
-7.5617056 0.72044069 16.537327 4285892664
-7.5171995 0.71967596 16.529308 4285892664
-7.4747014 0.71908957 16.52471 4285892664
-7.4341693 0.71868032 16.523516 4285892664
-7.4078541 0.71959543 16.547857 4285892664
-7.3824043 0.72060198 16.573982 4285892664
-7.3568711 0.7216118 16.600195 4285892664
-7.3237343 0.72191143 16.612707 4285892664
-7.2943034 0.72256833 16.632135 4285892664
-7.2666736 0.72340572 16.655066 4285892664
-7.2361765 0.72397614 16.672852 4285892664
-7.2074752 0.72472751 16.694151 4285892664
-7.1814766 0.7257511 16.720741 4285892664
-7.1553926 0.72677815 16.747421 4285892664
-7.129221 0.72780854 16.774187 4285892664
-7.1020446 0.72875136 16.799278 4285892664
-7.0757017 0.7297883 16.826218 4285892664
-7.0447016 0.73037094 16.844355 4285892664
-7.0109134 0.73067981 16.857185 4285892664
-6.9816146 0.73144782 16.878948 4285892664
-6.9540486 0.73240179 16.904348 4285892664
-6.9263992 0.73335874 16.929829 4285892664
-6.901361 0.73459661 16.960798 4285892664
-6.8780208 0.73602563 16.99552 4285892664
-6.85637 0.73764819 17.034044 4285892664
-6.8346095 0.73927891 17.072765 4285892664
-6.8118429 0.74082351 17.109837 4285892664
-6.7898612 0.74247044 17.148943 4285892664
-6.7668729 0.7440303 17.18638 4285892664
-6.7464533 0.74588555 17.229628 4285892664
-6.7285967 0.74804091 17.278784 4285892664
-6.6936822 0.7483685 17.292221 4285892664
-6.6569586 0.74850285 17.301884 4285892664
-6.6202149 0.74863738 17.311554 4285892664
-6.5843239 0.74886882 17.323128 4285892664
-6.5518832 0.74948835 17.342318 4285892664
-6.521111 0.75030369 17.365362 4285892664
-6.4928532 0.75141382 17.394211 4285892664
-6.4455891 0.75037986 17.380978 4285892664
-6.3832197 0.74760687 17.333549 4285892664
-10.162185 0.91471606 19.216034 4285892664
-9.9659328 0.90144014 18.985226 4285892664
-9.8380861 0.89404839 18.860125 4285892664
-9.7184696 0.8873145 18.746738 4285892664
-9.5963717 0.88029873 18.628138 4285892664
-9.4505739 0.87110758 18.470169 4285892664
-9.2844782 0.86001492 18.277706 4285892664
-9.105545 0.84766412 18.062313 4285892664
-8.9411077 0.83650565 17.868223 4285892664
-8.7825499 0.82577467 17.681646 4285892664
-8.6295586 0.81544864 17.502188 4285892664
-8.4865227 0.80593574 17.337244 4285892664
-8.3573132 0.79760391 17.193501 4285892664
-8.2409658 0.79038137 17.069691 4285892664
-8.1334019 0.78390503 16.959269 4285892664
-8.0351791 0.77823824 16.8634 4285892664
-7.944746 0.77324712 16.779684 4285892664
-7.8637676 0.769099 16.711174 4285892664
-7.7887769 0.76547766 16.652153 4285892664
-7.718533 0.76227283 16.600632 4285892664
-7.6577754 0.7599448 16.564993 4285892664
-7.6032615 0.75819463 16.539822 4285892664
-7.554811 0.75701386 16.524981 4285892664
-7.5141964 0.75658363 16.523787 4285892664
-7.4745808 0.75624716 16.524294 4285892664
-7.4368968 0.75609756 16.528202 4285892664
-7.4115224 0.75716275 16.554268 4285892664
-7.3860655 0.75823146 16.580418 4285892664
-7.3605237 0.75930363 16.606655 4285892664
-7.3283114 0.75971848 16.620903 4285892664
-7.2979279 0.76032281 16.638624 4285892664
-7.2693539 0.76111764 16.659843 4285892664
-7.237916 0.76162976 16.675903 4285892664
-7.208281 0.7623328 16.695473 4285892664
-7.181355 0.76332337 16.720322 4285892664
-7.1543469 0.76431692 16.745247 4285892664
-7.1272578 0.76531351 16.770248 4285892664
-7.1000853 0.76631314 16.795324 4285892664
-7.0728307 0.7673158 16.820478 4285892664
-7.041841 0.76793468 16.838602 4285892664
-7.0071564 0.76816744 16.849646 4285892664
-6.9778695 0.76898187 16.871389 4285892664
-6.9494114 0.76989561 16.894976 4285892664
-6.921773 0.77090931 16.920422 4285892664
-6.8967438 0.77221978 16.951353 4285892664
-6.8734093 0.77373207 16.986029 4285892664
-6.8517623 0.77544868 17.024502 4285892664
-6.8300056 0.777174 17.063169 4285892664
-6.8072433 0.7788083 17.100193 4285892664
-6.7852659 0.78055072 17.139246 4285892664
-6.7622833 0.78220123 17.176636 4285892664
-6.7400818 0.783961 17.216078 4285892664
-6.720438 0.7860353 17.261372 4285892664
-6.6846771 0.78628212 17.272894 4285892664
-6.6480036 0.78642714 17.282539 4285892664
-6.6113095 0.78657228 17.292191 4285892664
-6.5754662 0.78681964 17.303738 4285892664
-6.5413265 0.78727162 17.319088 4285892664
-6.5105944 0.78813416 17.342062 4285892664
-6.4832287 0.78941023 17.372732 4285892664
-6.4377613 0.78852892 17.363361 4285892664
-6.3763456 0.78570902 17.317957 4285892664
-6.3379149 0.78565013 17.323826 4285892664
-10.341106 0.97267336 19.41716 4285892664
-10.175042 0.96157044 19.235876 4285892664
-9.9798994 0.94768703 19.006922 4285892664
-9.8379421 0.93859869 18.859627 4285892664
-9.7048531 0.93025106 18.724831 4285892664
-9.5742807 0.92206132 18.592583 4285892664
-9.4262371 0.91215563 18.430828 4285892664
-9.2595434 0.90039861 18.2372 4285892664
-9.0814924 0.88745475 18.023031 4285892664
-8.9165659 0.87563777 17.82794 4285892664
-8.7600393 0.86451191 17.644487 4285892664
-8.6065588 0.85357255 17.464031 4285892664
-8.4642105 0.84360313 17.300026 4285892664
-8.3356028 0.83487111 17.157091 4285892664
-8.22089 0.82740957 17.03583 4285892664
-8.1159401 0.82083201 16.92963 4285892664
-8.0191345 0.81499225 16.836002 4285892664
-7.9310808 0.8099615 16.756193 4285892664
-7.8523736 0.80581075 16.691446 4285892664
-7.7775545 0.80200773 16.632616 4285892664
-7.7074666 0.79864234 16.581261 4285892664
-7.647819 0.79629761 16.547449 4285892664
-7.5953488 0.79465801 16.525761 4285892664
-7.5479293 0.79351735 16.512659 4285892664
-7.5102348 0.79336262 16.516569 4285892664
-7.4744606 0.79340476 16.523878 4285892664
-7.440578 0.79364383 16.534595 4285892664
-7.4142466 0.79467237 16.558977 4285892664
-7.3887835 0.79580301 16.585146 4285892664
-7.364181 0.79703683 16.613123 4285892664
-7.3310122 0.79737818 16.625656 4285892664
-7.3006186 0.79801887 16.643391 4285892664
-7.2711015 0.79876071 16.662889 4285892664
-7.2387252 0.79920399 16.677221 4285892664
-7.2081599 0.7998482 16.695053 4285892664
-7.1803083 0.80079514 16.718155 4285892664
-7.1533027 0.80184537 16.743074 4285892664
-7.1252952 0.80279779 16.76631 4285892664
-7.0972099 0.80375278 16.78961 4285892664
-7.069047 0.80471045 16.812975 4285892664
-7.0371599 0.80526352 16.829308 4285892664
-7.0024972 0.80551165 16.84034 4285892664
-6.9732246 0.80637217 16.862057 4285892664
-6.9447799 0.80733722 16.885612 4285892664
-6.9180527 0.8085103 16.912819 4285892664
-6.8930297 0.80989361 16.94372 4285892664
-6.8697 0.81148928 16.978357 4285892664
-6.8471608 0.81319624 17.014971 4285892664
-6.825408 0.81501579 17.053589 4285892664
-6.8026509 0.81673956 17.090563 4285892664
-6.7806768 0.81857717 17.129562 4285892664
-6.7568088 0.82021207 17.165045 4285892664
-6.734612 0.82206744 17.204424 4285892664
-6.7140799 0.82414663 17.247763 4285892664
-6.6783514 0.82440954 17.25927 4285892664
-6.6417127 0.82456523 17.2689 4285892664
-6.6050529 0.8247211 17.278538 4285892664
-6.5683732 0.82487714 17.288179 4285892664
-6.5342674 0.82535571 17.303501 4285892664
-6.5009751 0.82594281 17.32074 4285892664
-6.4753532 0.82750344 17.355129 4285892664
-6.4325118 0.82690382 17.351498 4285892664
-6.3745351 0.82436782 17.31374 4285892664
-6.3327713 0.82387996 17.312042 4285892664
-10.34431 1.0192846 19.421864 4285892664
-10.187934 1.0085506 19.255772 4285892664
-9.9907598 0.99376661 19.023729 4285892664
-9.8316784 0.98255354 18.849455 4285892664
-9.6838303 0.9723348 18.691153 4285892664
-9.5435867 0.96276832 18.543285 4285892664
-9.3949776 0.9522872 18.380371 4285892664
-9.2292891 0.94001448 18.188107 4285892664
-9.0523062 0.92650104 17.97542 4285892664
-8.8896179 0.91429037 17.783737 4285892664
-8.7339516 0.90266943 17.601461 4285892664
-8.5813007 0.89124221 17.42215 4285892664
-8.4397049 0.88082755 17.259174 4285892664
-8.3128862 0.87182015 17.119005 4285892664
-8.2009182 0.86424816 17.00214 4285892664
-8.0985575 0.85759234 16.900126 4285892664
-8.0042105 0.8517012 16.810507 4285892664
-7.9185009 0.8466509 16.734552 4285892664
-7.8399935 0.84230411 16.670033 4285892664
-7.7673707 0.83853287 16.61487 4285892664
-7.6974244 0.83500695 16.563663 4285892664
-7.6398492 0.83275926 16.533365 4285892664
-7.5884252 0.83114547 16.513433 4285892664
-7.5420237 0.83005458 16.502058 4285892664
-7.5072365 0.83020496 16.511057 4285892664
-7.4743404 0.83056241 16.523464 4285892664
-7.4433103 0.83112741 16.539289 4285892664
-7.4179225 0.83231658 16.565399 4285892664
-7.3924508 0.83350974 16.591593 4285892664
-7.3668957 0.83470666 16.617872 4285892664
-7.3337145 0.83506888 16.630417 4285892664
-7.3023729 0.83564115 16.646431 4285892664
-7.271914 0.83631939 16.664206 4285892664
-7.2386041 0.83668327 16.676804 4285892664
-7.2080383 0.8373636 16.694633 4285892664
-7.1792617 0.83825642 16.71599 4285892664
-7.1513362 0.83925754 16.739149 4285892664
-7.1224146 0.84015512 16.760618 4285892664
-7.0934205 0.84105492 16.782139 4285892664
-7.0643539 0.84195703 16.803713 4285892664
-7.0324841 0.8425405 16.820026 4285892664
-6.9978442 0.84280407 16.831047 4285892664
-6.9676838 0.84360343 16.85096 4285892664
-6.9401546 0.84472686 16.876265 4285892664
-6.9134383 0.84596157 16.903437 4285892664
-6.8884239 0.847417 16.934296 4285892664
-6.8651004 0.84909546 16.968889 4285892664
-6.8434591 0.85100007 17.007271 4285892664
-6.8217092 0.85291433 17.045847 4285892664
-6.7989564 0.8547278 17.082781 4285892664
-6.7769852 0.8566609 17.12174 4285892664
-6.7531223 0.85838103 17.157185 4285892664
-6.7300401 0.86022091 17.194654 4285892664
-6.7086215 0.86229467 17.236059 4285892664
-6.6729212 0.86257356 17.247551 4285892664
-6.6371913 0.86285275 17.259052 4285892664
-6.6005559 0.86301935 17.268679 4285892664
-6.5639005 0.86318606 17.278311 4285892664
-6.5289521 0.8635788 17.291725 4285892664
-6.4948235 0.8640849 17.307047 4285892664
-6.4700727 0.86583948 17.343275 4285892664
-6.4306798 0.86566681 17.347258 4285892664
-6.3769364 0.86356914 17.318981 4285892664
-6.33181 0.86260754 17.309717 4285892664
-10.427258 1.0648865 19.394331 4285892664
-10.425449 1.0692186 19.469366 4285892664
-10.330761 1.0642408 19.400484 4285892664
-10.18126 1.0536749 19.24505 4285892664
-9.9811792 1.0378737 19.008387 4285892664
-9.8116999 1.0250503 18.817596 4285892664
-9.6569796 1.0136216 18.648216 4285892664
-9.5087786 1.0027583 18.487419 4285892664
-9.3583384 0.99156177 18.321278 4285892664
-9.1938238 0.97879654 18.130602 4285892664
-9.024622 0.9654215 17.930248 4285892664
-8.8679037 0.95322978 17.748068 4285892664
-8.7129259 0.94110578 17.566742 4285892664
-8.5597563 0.92905718 17.386395 4285892664
-8.4188004 0.91819364 17.224293 4285892664
-8.2947807 0.90903741 17.088606 4285892664
-8.1843319 0.90125197 16.974125 4285892664
-8.0844679 0.89453465 16.876169 4285892664
-7.9925003 0.88860911 16.790453 4285892664
-7.9080286 0.88344359 16.716503 4285892664
-7.8317223 0.87912279 16.655655 4285892664
-7.7582169 0.87506807 16.598896 4285892664
-7.6893864 0.87149096 16.549538 4285892664
-7.6318974 0.86914116 16.519312 4285892664
-7.5795755 0.86734647 16.497734 4285892664
-7.534205 0.86631578 16.488087 4285892664
-7.500411 0.86658412 16.498768 4285892664
-7.4684949 0.86706936 16.512854 4285892664
-7.4393859 0.86788082 16.532063 4285892664
-7.4140053 0.8691296 16.558144 4285892664
-7.3894887 0.8704918 16.586027 4285892664
-7.3639388 0.87174904 16.612288 4285892664
-7.33077 0.87213135 16.624823 4285892664
-7.299439 0.87273389 16.640825 4285892664
-7.2680559 0.87333739 16.656855 4285892664
-7.2356911 0.87383169 16.671177 4285892664
-7.2042084 0.87443697 16.687256 4285892664
-7.1735969 0.87515396 16.705105 4285892664
-7.1447659 0.8760941 16.726482 4285892664
-7.1149464 0.87692541 16.746161 4285892664
-7.0850611 0.87775856 16.765882 4285892664
-7.0551095 0.87859344 16.785646 4285892664
-7.0241838 0.87931842 16.80369 4285892664
-6.9904871 0.87970883 16.816458 4285892664
-6.9612522 0.88066036 16.838106 4285892664
-6.9346375 0.88195193 16.865147 4285892664
-6.9079347 0.88324785 16.892279 4285892664
-6.8838243 0.88488811 16.924885 4285892664
-6.8614006 0.88676316 16.961239 4285892664
-6.83887 0.88864714 16.997765 4285892664
-6.8171234 0.8906551 17.036291 4285892664
-6.7943754 0.89255756 17.073175 4285892664
-6.7724085 0.89458543 17.112083 4285892664
-6.747664 0.89627355 17.145626 4285892664
-6.7245874 0.89820307 17.183037 4285892664
-6.7031722 0.90037757 17.224375 4285892664
-6.6701469 0.90102655 17.241482 4285892664
-6.6344309 0.90132201 17.252975 4285892664
-6.5986838 0.90161771 17.264479 4285892664
-6.5620379 0.90179539 17.274107 4285892664
-6.524509 0.90185487 17.281857 4285892664
-6.4878259 0.90203267 17.291494 4285892664
-6.463088 0.90387195 17.327644 4285892664
-6.4279971 0.90428877 17.34112 4285892664
-6.3818712 0.90315998 17.329914 4285892664
-6.3367004 0.90215236 17.320631 4285892664
-6.2999382 0.9023304 17.330286 4285892664
-10.401824 1.1085125 19.354845 4285892664
-10.391474 1.1121417 19.416449 4285892664
-10.307248 1.1080217 19.363594 4285892664
