# .PCD v0.7 - Point Cloud Data file format
VERSION 0.7
FIELDS x y z rgb
SIZE 4 4 4 4
TYPE F F F U
COUNT 1 1 1 1
WIDTH 1143
HEIGHT 1
VIEWPOINT 0 0 0 1 0 0 0
POINTS 1143
DATA ascii
-9.1097898 1.0617287 18.056087 4285892664
-8.9483767 1.0477926 17.86462 4285892664
-8.7811346 1.0330517 17.661333 4285892664
-8.6076899 1.0174514 17.445415 4285892664
-8.4325714 1.0015086 17.224289 4285892664
-8.2711201 0.98702121 17.023857 4285892664
-8.1266479 0.97440159 16.850109 4285892664
-7.9967318 0.96338892 16.699326 4285892664
-7.8813581 0.95400494 16.571869 4285892664
-7.7724009 0.94529998 16.454058 4285892664
-7.6685009 0.93712014 16.343685 4285892664
-7.5645208 0.9288516 16.231888 4285892664
-7.4824834 0.9231711 16.15741 4285892664
-7.4043036 0.917907 16.088863 4285892664
-7.3298192 0.91304576 16.026064 4285892664
-7.2625279 0.90902513 15.975372 4285892664
-7.2021441 0.90582246 15.936481 4285892664
-7.1484265 0.90342009 15.909159 4285892664
-7.1064801 0.90247029 15.902899 4285892664
-7.0654898 0.90163291 15.89826 4285892664
-7.0254378 0.90090746 15.895237 4285892664
-6.9932532 0.90117764 15.906699 4285892664
-6.9644995 0.90189159 15.924631 4285892664
-6.9374127 0.90282929 15.945839 4285892664
-6.9050884 0.90310138 15.957361 4285892664
-6.8752999 0.90370798 15.973773 4285892664
-6.8488731 0.90476239 15.996737 4285892664
-6.815556 0.90492451 16.006687 4285892664
-6.78052 0.90486312 16.013374 4285892664
-6.7446327 0.90468991 16.018429 4285892664
-6.7129316 0.90507579 16.031668 4285892664
-6.6803546 0.90535027 16.043283 4285892664
-6.6494031 0.90584922 16.058199 4285892664
-6.6217117 0.90679854 16.079729 4285892664
-6.593946 0.90775043 16.101316 4285892664
-6.5669293 0.90881777 16.124622 4285892664
-6.5431166 0.91034192 16.154659 4285892664
-6.5183883 0.91175824 16.183144 4285892664
-6.4935665 0.91317987 16.211735 4285892664
-6.472734 0.91518062 16.248878 4285892664
-6.4517937 0.91719174 16.286213 4285892664
-6.4315624 0.91932923 16.325451 4285892664
-6.4079609 0.92101204 16.358025 4285892664
-6.3842568 0.92270219 16.390743 4285892664
-6.3604498 0.92439979 16.423603 4285892664
-6.3357286 0.92598689 16.454866 4285892664
-6.3092909 0.9273439 16.482758 4285892664
-6.2819529 0.9285869 16.508995 4285892664
-6.2489114 0.92900169 16.522997 4285892664
-6.2182174 0.92977405 16.542305 4285892664
-6.1898403 0.93090606 16.566961 4285892664
-6.1605844 0.93192178 16.589916 4285892664
-6.1328268 0.93318033 16.616497 4285892664
-6.1049771 0.93444312 16.643166 4285892664
-6.0864644 0.93716216 16.691492 4285892664
-6.0709786 0.94038743 16.747398 4285892664
-6.0545831 0.943515 16.801912 4285892664
-6.045177 0.94778305 16.873461 4285892664
-6.0229983 0.95009124 16.915905 4285892664
-5.9904485 0.95078266 16.934303 4285892664
-5.9751115 0.95424211 16.993988 4285892664
-9.926693 1.176322 18.998816 4285892664
-9.8216286 1.1690707 18.908518 4285892664
-9.6385822 1.1525495 18.690613 4285892664
-9.4506378 1.1352968 18.462366 4285892664
-9.264267 1.1180731 18.234232 4285892664
-9.1000137 1.1033379 18.040098 4285892664
-8.9362755 1.0885283 17.844692 4285892664
-8.7656298 1.0727462 17.635626 4285892664
-8.5915194 1.0563958 17.418451 4285892664
-8.4170027 1.0398418 17.198191 4285892664
-8.2549553 1.0246593 16.996611 4285892664
-8.1109896 1.0115592 16.823574 4285892664
-7.9815159 1.0001274 16.673405 4285892664
-7.8675652 0.9905166 16.548256 4285892664
-7.7619891 0.98185992 16.436167 4285892664
-7.6593213 0.97348511 16.327843 4285892664
-7.5574965 0.96513563 16.21973 4285892664
-7.4774919 0.95947212 16.148762 4285892664
-7.4012733 0.95423645 16.083639 4285892664
-7.3277602 0.94929641 16.022541 4285892664
-7.2604961 0.94511282 15.971878 4285892664
-7.201036 0.94189823 15.934631 4285892664
-7.1473289 0.93940079 15.907317 4285892664
-7.1053886 0.93841767 15.901059 4285892664
-7.0635266 0.93743652 15.894814 4285892664
-7.022614 0.93657231 15.890186 4285892664
-6.9904408 0.93686146 15.901642 4285892664
-6.9608293 0.93749714 15.917947 4285892664
-6.9337521 0.93848151 15.939135 4285892664
-6.9005837 0.93865639 15.949028 4285892664
-6.870811 0.93929565 15.965421 4285892664
-6.8443947 0.94040126 15.988357 4285892664
-6.8119478 0.94069386 15.999928 4285892664
-6.7769303 0.94063729 16.006611 4285892664
-6.7402215 0.94034761 16.010029 4285892664
-6.7085385 0.9407571 16.023254 4285892664
-6.6768131 0.941167 16.036495 4285892664
-6.6450458 0.94157749 16.049755 4285892664
-6.6181941 0.94269085 16.072906 4285892664
-6.5920877 0.94392502 16.09778 4285892664
-6.5658979 0.94516313 16.122732 4285892664
-6.5429077 0.94687843 16.154428 4285892664
-6.5181789 0.94836348 16.182913 4285892664
-6.4925394 0.94973487 16.209824 4285892664
-6.47089 0.95170927 16.245268 4285892664
-6.4499512 0.95381361 16.282583 4285892664
-6.4297199 0.95604962 16.3218 4285892664
-6.4053073 0.9576903 16.352642 4285892664
-6.3816075 0.95945972 16.385334 4285892664
-6.3578038 0.96123672 16.418169 4285892664
-6.3338966 0.96302164 16.451149 4285892664
-6.3090773 0.96469086 16.482523 4285892664
-6.2825437 0.96611929 16.510513 4285892664
-6.2519035 0.96693188 16.529797 4285892664
-6.2227936 0.96799517 16.552654 4285892664
-6.1951962 0.9693107 16.579119 4285892664
-6.1659193 0.97038043 16.602114 4285892664
-6.1373529 0.97157848 16.626955 4285892664
-6.1094875 0.97290599 16.653662 4285892664
-6.0901866 0.97562879 16.700262 4285892664
-6.0731268 0.97875142 16.752607 4285892664
-6.055943 0.9818967 16.805334 4285892664
-6.0473328 0.98648977 16.878769 4285892664
-6.0259418 0.98903859 16.923107 4285892664
-5.9949527 0.99003035 16.945259 4285892664
-5.9780431 0.99339044 17.001272 4285892664
-9.9057722 1.2194617 18.965336 4285892664
-9.8088655 1.2129079 18.888039 4285892664
-9.6262465 1.1957628 18.670719 4285892664
-9.4372835 1.1776773 18.440704 4285892664
-9.2513895 1.1598064 18.21324 4285892664
-9.0889015 1.1446868 18.021904 4285892664
-8.9228973 1.1289867 17.822645 4285892664
-8.7476521 1.1119778 17.605793 4285892664
-8.5717564 1.094727 17.385468 4285892664
-8.3968019 1.0774329 17.164293 4285892664
-8.2354622 1.0617118 16.963726 4285892664
-8.091012 1.0480068 16.789686 4285892664
-7.9631672 1.0363097 16.64212 4285892664
-7.850708 1.0264926 16.519367 4285892664
-7.7495766 1.0180547 16.414814 4285892664
-7.6511559 1.0098901 16.313765 4285892664
-7.5543694 1.0018609 16.214394 4285892664
-7.4753714 0.99610233 16.145166 4285892664
-7.4001241 0.99078584 16.081745 4285892664
-7.3275514 0.98577434 16.02231 4285892664
-7.2602887 0.98142558 15.971649 4285892664
-7.200829 0.97808576 15.934403 4285892664
-7.1462317 0.97537196 15.905477 4285892664
-7.1042981 0.9743557 15.89922 4285892664
-7.0624418 0.97334135 15.892978 4285892664
-7.0206637 0.97232896 15.886745 4285892664
-6.9876299 0.97251672 15.896587 4285892664
-6.9580278 0.97318536 15.912882 4285892664
-6.9309573 0.97421634 15.934054 4285892664
-6.8978009 0.97440547 15.943941 4285892664
-6.8680372 0.97507757 15.960323 4285892664
-6.8433347 0.97647715 15.9865 4285892664
-6.8108912 0.976789 15.998068 4285892664
-6.7758775 0.97673714 16.004749 4285892664
-6.7400146 0.97656405 16.0098 4285892664
-6.7074947 0.97687608 16.021389 4285892664
-6.6757731 0.97731 16.034628 4285892664
-6.6440101 0.97774446 16.047886 4285892664
-6.6179867 0.9790327 16.072678 4285892664
-6.5918798 0.9803251 16.097551 4285892664
-6.5673351 0.98186713 16.125822 4285892664
-6.544342 0.98366159 16.157534 4285892664
-6.5204287 0.98533982 16.187704 4285892664
-6.4939651 0.98665231 16.212954 4285892664
-6.4706798 0.9884674 16.245035 4285892664
-6.4489245 0.9905408 16.280653 4285892664
-6.4270635 0.99262434 16.316442 4285892664
-6.4026561 0.99433887 16.347261 4285892664
-6.3781486 0.99606037 16.378206 4285892664
-6.3543506 0.99791628 16.411009 4285892664
-6.3312573 0.99990821 16.445694 4285892664
-6.3072491 1.0017809 16.47879 4285892664
-6.28233 1.0035329 16.510279 4285892664
-6.2540965 1.0047746 16.534843 4285892664
-6.2257771 1.0060198 16.559484 4285892664
-6.1981697 1.0073991 16.585976 4285892664
-6.1688809 1.0085219 16.608992 4285892664
-6.1395116 1.009648 16.632072 4285892664
-6.1116376 1.0110393 16.658798 4285892664
-6.091547 1.0137529 16.703629 4285892664
-6.0744872 1.0170145 16.756002 4285892664
-6.0573034 1.0202998 16.808756 4285892664
-6.0479059 1.0249588 16.880379 4285892664
-6.0265141 1.0276219 16.924728 4285892664
-5.9955211 1.0286628 16.946884 4285892664
-5.9770336 1.0318966 16.999146 4285892664
-9.8865223 1.2626144 18.934536 4285892664
-9.7961359 1.256629 18.867613 4285892664
-9.615448 1.239055 18.65332 4285892664
-9.4254169 1.2201213 18.421471 4285892664
-9.2357559 1.2010607 18.187723 4285892664
-9.069705 1.1848816 17.990377 4285892664
-8.901721 1.1683004 17.787666 4285892664
-8.727232 1.1507139 17.571892 4285892664
-8.554512 1.1331942 17.356703 4285892664
-8.3813696 1.1154531 17.138426 4285892664
-8.2194414 1.0990309 16.936722 4285892664
-8.0765867 1.084994 16.765251 4285892664
-7.9502039 1.0730286 16.620054 4285892664
-7.8401294 1.0631431 16.501287 4285892664
-7.7422643 1.0548139 16.40229 4285892664
-7.6469741 1.046754 16.30662 4285892664
-7.5531859 1.0388212 16.21246 4285892664
-7.4761152 1.033106 16.146616 4285892664
-7.4017944 1.0277144 16.084841 4285892664
-7.3310452 1.0227655 16.028669 4285892664
-7.26373 1.0182469 15.977952 4285892664
-7.2033262 1.014652 15.939043 4285892664
-7.1478076 1.0117098 15.908476 4285892664
-7.1049767 1.0105344 15.900604 4285892664
-7.0631146 1.0094866 15.89436 4285892664
-7.0222025 1.0085654 15.889732 4285892664
-6.9891605 1.0087676 15.899578 4285892664
-6.9595523 1.0094699 15.915879 4285892664
-6.9324765 1.0105493 15.937062 4285892664
-6.8984532 1.0106274 15.945333 4285892664
-6.8695416 1.0114588 15.963341 4285892664
-6.8448353 1.0129216 15.98953 4285892664
-6.8132343 1.013379 16.002735 4285892664
-6.7798986 1.0135844 16.01269 4285892664
-6.7440114 1.0134112 16.017744 4285892664
-6.711472 1.013743 16.029343 4285892664
-6.6797323 1.0142018 16.042597 4285892664
-6.6479502 1.0146611 16.055868 4285892664
-6.6219163 1.0160092 16.08069 4285892664
-6.5966244 1.0174892 16.107246 4285892664
-6.5720692 1.019102 16.135559 4285892664
-6.54989 1.0211062 16.168987 4285892664
-6.5251441 1.0227326 16.197533 4285892664
-6.4978476 1.0239772 16.221132 4285892664
-6.4729204 1.0256146 16.249874 4285892664
-6.4487143 1.0273883 16.28042 4285892664
-6.4260383 1.0294309 16.314503 4285892664
-6.4000063 1.0309576 16.341887 4285892664
-6.375504 1.032753 16.372808 4285892664
-6.3509011 1.0345559 16.403856 4285892664
-6.3294282 1.0368975 16.44198 4285892664
-6.3062286 1.0389842 16.476809 4285892664
-6.2821164 1.0409466 16.510042 4285892664
-6.2538824 1.0422447 16.534609 4285892664
-6.2263627 1.0436817 16.561016 4285892664
-6.1979547 1.044988 16.585739 4285892664
-6.1694603 1.0462984 16.610535 4285892664
-6.1416712 1.0477489 16.637194 4285892664
-6.1161594 1.0496138 16.669323 4285892664
-6.0976458 1.0527227 16.717838 4285892664
-6.0813808 1.0562677 16.772142 4285892664
-6.0642004 1.0597001 16.825022 4285892664
-6.0540314 1.0644238 16.89496 4285892664
-6.0326338 1.0672067 16.939405 4285892664
-6.0024033 1.0684413 16.963478 4285892664
-5.9839168 1.0718203 17.015863 4285892664
-9.8642035 1.3051817 18.898808 4285892664
-9.7803354 1.2998242 18.842226 4285892664
-9.6016712 1.2818505 18.631088 4285892664
-9.4121351 1.2622634 18.399929 4285892664
-9.2187853 1.2419852 18.160013 4285892664
-9.0519371 1.2250819 17.961206 4285892664
-8.8832464 1.2077723 17.75717 4285892664
-8.7119236 1.1899432 17.546507 4285892664
-8.544591 1.1724902 17.340212 4285892664
-8.3741426 1.1544452 17.126383 4285892664
-8.2124662 1.137436 16.925041 4285892664
-8.068738 1.1227472 16.752018 4285892664
-7.9425702 1.1103587 16.607117 4285892664
-7.8326769 1.1001246 16.48859 4285892664
-7.7369895 1.0917859 16.393293 4285892664
-7.6447773 1.0838572 16.302933 4285892664
-7.5549164 1.0761847 16.215626 4285892664
-7.4797273 1.070528 16.153111 4285892664
-7.4081707 1.0653366 16.096268 4285892664
-7.3382511 1.0603303 16.041639 4285892664
-7.2717462 1.0557687 15.992446 4285892664
-7.2094345 1.0517721 15.950185 4285892664
-7.152061 1.0484582 15.916324 4285892664
-7.1091971 1.0472432 15.90844 4285892664
-7.0673037 1.0461606 15.902183 4285892664
-7.0254879 1.0450802 15.895938 4285892664
-6.9932995 1.0454266 15.907402 4285892664
-6.9628091 1.0460334 15.922107 4285892664
-6.9348598 1.0470315 15.94169 4285892664
-6.9008236 1.0471194 15.949965 4285892664
-6.8710465 1.0478592 15.966361 4285892664
-6.8471909 1.0495162 15.994192 4285892664
-6.8164301 1.0501292 16.009041 4285892664
-6.7830777 1.0503494 16.019001 4285892664
-6.7471714 1.050176 16.024057 4285892664
-6.7162938 1.0507903 16.038948 4285892664
-6.6845317 1.0512741 16.052219 4285892664
-6.6535587 1.0518901 16.067152 4285892664
-6.6275091 1.0532992 16.092016 4285892664
-6.6022038 1.0548453 16.118618 4285892664
-6.5784621 1.0566628 16.148642 4285892664
-6.556273 1.0587548 16.182137 4285892664
-6.5306902 1.0603198 16.209057 4285892664
-6.503376 1.0616213 16.232697 4285892664
-6.4759803 1.0629267 16.256407 4285892664
-6.4501357 1.0645064 16.283585 4285892664
-6.4250131 1.0662274 16.312565 4285892664
-6.3989835 1.0678188 16.339941 4285892664
-6.3728609 1.0694157 16.367414 4285892664
-6.3482628 1.0712926 16.398438 4285892664
-6.3267918 1.0737287 16.436533 4285892664
-6.3044024 1.0760387 16.47308 4285892664
-6.2810979 1.0782211 16.508051 4285892664
-6.2536683 1.0797149 16.534372 4285892664
-6.2261486 1.0812137 16.56078 4285892664
-6.1985373 1.0827175 16.587276 4285892664
-6.1700401 1.0840853 16.612078 4285892664
-6.1446261 1.0860229 16.644106 4285892664
-6.1206894 1.0882527 16.679865 4285892664
-6.1037593 1.0917792 16.732079 4285892664
-6.0882912 1.0956197 16.788324 4285892664
-6.0711145 1.0991998 16.841328 4285892664
-6.0593753 1.1038312 16.907719 4285892664
-6.0387669 1.1068813 16.954115 4285892664
-6.0108876 1.1086169 16.98387 4285892664
-5.9924026 1.1121439 17.036411 4285892664
-9.8404245 1.3473381 18.860731 4285892664
-9.7599525 1.3422425 18.809437 4285892664
-9.5834513 1.3239038 18.601639 4285892664
-9.3974504 1.3040849 18.376095 4285892664
-9.2046499 1.2831395 18.136957 4285892664
-9.0369205 1.2654933 17.936573 4285892664
-8.8674402 1.2474372 17.731096 4285892664
-8.7029219 1.22991 17.531635 4285892664
-8.5419407 1.2127174 17.335901 4285892664
-8.3750811 1.1945267 17.128096 4285892664
-8.2122421 1.1767365 16.924793 4285892664
-8.0663404 1.1612048 16.748068 4285892664
-7.9391785 1.1482245 16.601442 4285892664
-7.8283319 1.1374818 16.481243 4285892664
-7.7347517 1.1291481 16.389555 4285892664
-7.645555 1.1213747 16.304424 4285892664
-7.5605388 1.1141404 16.225605 4285892664
-7.4871731 1.1085565 16.166357 4285892664
-7.4173908 1.1034502 16.112728 4285892664
-7.3501248 1.0986696 16.062918 4285892664
-7.283452 1.0939312 16.013546 4285892664
-7.2200813 1.089644 15.969499 4285892664
-7.1598978 1.0857973 15.93066 4285892664
-7.1160865 1.084406 15.921134 4285892664
-7.0741425 1.083288 15.914859 4285892664
-7.0322752 1.0821718 15.908595 4285892664
-6.9983149 1.0822688 15.91685 4285892664
-6.9669366 1.0827705 15.929957 4285892664
-6.9372449 1.0835427 15.946321 4285892664
-6.9023356 1.0835052 15.952979 4285892664
-6.8734097 1.0844144 15.971007 4285892664
-6.8486929 1.0860041 15.997227 4285892664
-6.8187766 1.0867825 16.013716 4285892664
-6.7862601 1.0871536 16.025322 4285892664
-6.7511783 1.0871164 16.032019 4285892664
-6.7211227 1.0878968 16.048567 4285892664
-6.6910119 1.0886788 16.065147 4285892664
-6.6616788 1.0895994 16.083408 4285892664
-6.6347761 1.0909334 16.106674 4285892664
-6.608623 1.0924091 16.13167 4285892664
-6.584868 1.0943041 16.161755 4285892664
-6.5626707 1.0964845 16.195314 4285892664
-6.5378962 1.0982565 16.22397 4285892664
-6.5097375 1.0994761 16.245972 4285892664
-6.4806819 1.100559 16.266336 4285892664
-6.4531903 1.1019253 16.290152 4285892664
-6.4264302 1.1034364 16.315744 4285892664
-6.3979597 1.10467 16.337996 4285892664
-6.3710303 1.1061902 16.363743 4285892664
-6.3456273 1.1079994 16.393024 4285892664
-6.3249645 1.1106726 16.432825 4285892664
-6.3025765 1.113073 16.469353 4285892664
-6.2792745 1.1153409 16.504307 4285892664
-6.2526517 1.1170404 16.532375 4285892664
-6.225934 1.1187458 16.560543 4285892664
-6.19912 1.1204573 16.588814 4285892664
-6.1714149 1.1220289 16.615402 4285892664
-6.1475844 1.1243393 16.65103 4285892664
-6.1252265 1.1269557 16.690424 4285892664
-6.1098857 1.1309228 16.746349 4285892664
-6.0944242 1.1349208 16.802713 4285892664
-6.0772505 1.1386484 16.855829 4285892664
-6.0655265 1.1434686 16.922363 4285892664
-6.0465083 1.1469519 16.972609 4285892664
-6.0209894 1.149226 17.008097 4285892664
-6.0040984 1.1532141 17.064621 4285892664
-9.8386011 1.3923641 18.857933 4285892664
-9.7504349 1.3860054 18.794197 4285892664
-9.5772247 1.3674896 18.591663 4285892664
-9.3957596 1.3476233 18.373468 4285892664
-9.2099552 1.3269497 18.145792 4285892664
-9.0447292 1.3090529 17.949585 4285892664
-8.8801699 1.2910855 17.752335 4285892664
-8.7214947 1.2738063 17.562727 4285892664
-8.565959 1.2568235 17.376284 4285892664
-8.3994045 1.238059 17.169209 4285892664
-8.2323017 1.2190342 16.958904 4285892664
-8.0759211 1.2014191 16.764517 4285892664
-7.9400172 1.1866893 16.603012 4285892664
-7.8250217 1.1749519 16.475677 4285892664
-7.7335258 1.1666417 16.387568 4285892664
-7.6483169 1.1592031 16.309366 4285892664
-7.5671444 1.1523064 16.237307 4285892664
-7.4946356 1.1466675 16.179632 4285892664
-7.4247427 1.1413758 16.125883 4285892664
-7.3573718 1.1364219 16.07596 4285892664
-7.2896757 1.1313689 16.024832 4285892664
-7.2253141 1.1267864 15.979064 4285892664
-7.1632719 1.1225225 15.936915 4285892664
-7.1185446 1.1209466 15.925758 4285892664
-7.0756993 1.1196543 15.917861 4285892664
-7.0346961 1.1186439 15.913206 4285892664
-6.9989796 1.1184715 15.918237 4285892664
-6.9667306 1.1188574 15.929729 4285892664
-6.9379025 1.1198031 15.947713 4285892664
-6.9029894 1.1197704 15.954373 4285892664
-6.8740597 1.1207181 15.972405 4285892664
-6.8501959 1.1225114 16.000263 4285892664
-6.8219786 1.123606 16.020033 4285892664
-6.7902951 1.124138 16.033287 4285892664
-6.7551904 1.1241057 16.039991 4285892664
-6.7259593 1.1250626 16.058203 4285892664
-6.6975064 1.1261636 16.078104 4285892664
-6.6689839 1.1272671 16.098051 4285892664
-6.6412258 1.1285157 16.119707 4285892664
-6.6150556 1.1300535 16.144753 4285892664
-6.5904584 1.1318829 16.173222 4285892664
-6.568253 1.1341511 16.206839 4285892664
-6.5434661 1.135996 16.235544 4285892664
-6.5161119 1.1374127 16.259275 4285892664
-6.4870329 1.1385429 16.279678 4285892664
-6.4587021 1.1398214 16.301834 4285892664
-6.4311109 1.1412497 16.325762 4285892664
-6.4026232 1.1425356 16.348043 4285892664
-6.375679 1.1441188 16.373829 4285892664
-6.3486466 1.145707 16.399696 4285892664
-6.3263664 1.1481884 16.436064 4285892664
-6.3031697 1.150533 16.470861 4285892664
-6.2790608 1.1527393 16.50407 4285892664
-6.2524376 1.1545054 16.532139 4285892664
-6.2257195 1.1562779 16.560307 4285892664
-6.198905 1.1580566 16.588575 4285892664
-6.1727905 1.1599933 16.618729 4285892664
-6.1481624 1.1622416 16.652582 4285892664
-6.126596 1.1651113 16.693789 4285892664
-6.1096687 1.1689202 16.746111 4285892664
-6.0942059 1.1730671 16.802473 4285892664
-6.0770316 1.1769339 16.855589 4285892664
-6.0661044 1.1820899 16.923985 4285892664
-6.0486808 1.1860228 16.977999 4285892664
-6.029532 1.1896647 17.028627 4285892664
-6.0150437 1.1942986 17.091043 4285892664
-9.8461676 1.4387436 18.87022 4285892664
-9.7532606 1.431487 18.798895 4285892664
-9.5829439 1.412775 18.60108 4285892664
-9.4041615 1.3926394 18.387312 4285892664
-9.2236137 1.3720548 18.168333 4285892664
-9.0633316 1.3543024 17.980398 4285892664
-8.9033737 1.3364321 17.790939 4285892664
-8.7527952 1.3198068 17.615034 4285892664
-8.6035995 1.3032336 17.439497 4285892664
-8.4380617 1.2840179 17.234474 4285892664
-8.2661152 1.2636387 17.016317 4285892664
-8.0942822 1.243081 16.795921 4285892664
-7.947207 1.2261448 16.615458 4285892664
-7.8237748 1.2127103 16.473665 4285892664
-7.7333107 1.2042826 16.387331 4285892664
-7.6510806 1.1970625 16.314316 4285892664
-7.5727863 1.1903917 16.24732 4285892664
-7.5001898 1.184557 16.189548 4285892664
-7.4302144 1.1790818 16.13571 4285892664
-7.363699 1.174106 16.087366 4285892664
-7.2959113 1.1688768 16.036139 4285892664
-7.2296457 1.1638416 15.987008 4285892664
-7.1666493 1.1592869 15.943178 4285892664
-7.1210051 1.1575162 15.930387 4285892664
-7.0781398 1.1561848 15.922482 4285892664
-7.0371175 1.1551449 15.917821 4285892664
-7.0013871 1.1549724 15.922853 4285892664
-6.9682589 1.1552333 15.932735 4285892664
-6.938561 1.1560731 15.949107 4285892664
-6.9053631 1.1563348 15.959013 4285892664
-6.8764243 1.1573216 15.977056 4285892664
-6.8534126 1.1593294 16.006567 4285892664
-6.8260369 1.1606147 16.027996 4285892664
-6.7951851 1.1613179 16.042906 4285892664
-6.7608981 1.1614368 16.05126 4285892664
-6.7324905 1.1625812 16.07115 4285892664
-6.704855 1.1638753 16.092741 4285892664
-6.6779828 1.1653204 16.116049 4285892664
-6.6501961 1.1666218 16.13776 4285892664
-6.624001 1.1682231 16.16287 4285892664
-6.5977225 1.1698297 16.188063 4285892664
-6.5746765 1.1720383 16.22007 4285892664
-6.5507026 1.1741066 16.250525 4285892664
-6.5241518 1.1757319 16.276003 4285892664
-6.4950438 1.1769103 16.296455 4285892664
-6.4675064 1.1783937 16.320374 4285892664
-6.4390683 1.1797302 16.342648 4285892664
-6.4105525 1.1810701 16.364983 4285892664
-6.382772 1.1825659 16.389105 4285892664
-6.3557186 1.184219 16.41503 4285892664
-6.3326187 1.1866447 16.449739 4285892664
-6.3086042 1.1889274 16.482859 4285892664
-6.2836776 1.1910652 16.514368 4285892664
-6.256237 1.192746 16.540712 4285892664
-6.2295079 1.1945883 16.568916 4285892664
-6.2026815 1.196437 16.597221 4285892664
-6.1773534 1.1986061 16.629198 4285892664
-6.1535101 1.2010995 16.664896 4285892664
-6.1311431 1.2039214 16.70437 4285892664
-6.1142173 1.2078742 16.756775 4285892664
-6.0979643 1.2120165 16.811394 4285892664
-6.080792 1.2160283 16.864578 4285892664
-6.0706735 1.221539 16.934933 4285892664
-6.0556507 1.2261147 16.994678 4285892664
-6.0413051 1.2308946 17.056816 4285892664
-6.0300484 1.2363858 17.127159 4285892664
-10.099612 1.5089288 19.11817 4285892664
-9.9652796 1.495409 18.982765 4285892664
-9.8631668 1.486619 18.897665 4285892664
-9.7653618 1.4784011 18.818569 4285892664
-9.5991535 1.4597129 18.627529 4285892664
-9.4241629 1.4395111 18.420088 4285892664
-9.2471066 1.4188049 18.207008 4285892664
-9.0901537 1.401004 18.024769 4285892664
-8.9372234 1.3836594 17.847198 4285892664
-8.7971134 1.3681463 17.689041 4285892664
-8.655241 1.3522111 17.526175 4285892664
-8.4926729 1.3328731 17.32662 4285892664
-8.3163528 1.311179 17.101551 4285892664
-8.1237583 1.2866944 16.846258 4285892664
-7.9597235 1.2665249 16.637024 4285892664
-7.8235579 1.2506233 16.473425 4285892664
-7.7341065 1.2420862 16.388844 4285892664
-7.652853 1.2347924 16.317537 4285892664
-7.5774598 1.2283803 16.25564 4285892664
-7.5047908 1.2223507 16.197786 4285892664
-7.4347458 1.2166932 16.143871 4285892664
-7.3681664 1.211552 16.095461 4285892664
-7.3003125 1.2061487 16.044161 4285892664
-7.2348928 1.201098 15.996602 4285892664
-7.1700306 1.1960901 15.949448 4285892664
-7.1243567 1.194265 15.936641 4285892664
-7.0814657 1.1928939 15.928724 4285892664
-7.041297 1.1919737 15.925673 4285892664
-7.0046701 1.1916518 15.929091 4285892664
-6.9715252 1.1919273 15.938981 4285892664
-6.9418144 1.1928015 15.955366 4285892664
-6.9086008 1.1930779 15.965281 4285892664
-6.8805084 1.1942545 15.984969 4285892664
-6.8574891 1.1963373 16.014517 4285892664
-6.831811 1.1979749 16.039253 4285892664
-6.8017869 1.19886 16.055832 4285892664
-6.7691612 1.1992922 16.067495 4285892664
-6.7415709 1.2006354 16.089083 4285892664
-6.7147498 1.2021348 16.112389 4285892664
-6.6886902 1.2037914 16.137428 4285892664
-6.6608691 1.2051467 16.159206 4285892664
-6.63381 1.2066593 16.18272 4285892664
-6.6075044 1.2083304 16.207983 4285892664
-6.5844421 1.2106258 16.240086 4285892664
-6.559618 1.2126203 16.268932 4285892664
-6.5338712 1.2144663 16.296183 4285892664
-6.5055537 1.2158502 16.318401 4285892664
-6.477983 1.2173945 16.342396 4285892664
-6.4495087 1.2187862 16.364738 4285892664
-6.4217753 1.2203392 16.38887 4285892664
-6.3939586 1.221897 16.413074 4285892664
-6.3660588 1.2234592 16.437349 4285892664
-6.3421297 1.2258213 16.470425 4285892664
-6.3164763 1.2278743 16.500137 4285892664
-6.291532 1.2300953 16.531723 4285892664
-6.2632618 1.2316822 16.556368 4285892664
-6.2365112 1.2335963 16.584633 4285892664
-6.2096643 1.2355174 16.613001 4285892664
-6.1851182 1.237933 16.646839 4285892664
-6.1620584 1.2406861 16.684429 4285892664
-6.1396794 1.2436168 16.724018 4285892664
-6.1227593 1.24772 16.776573 4285892664
-6.1065135 1.2520194 16.83135 4285892664
-6.0893455 1.2561837 16.884691 4285892664
-6.0792537 1.2619017 16.955254 4285892664
-6.0674539 1.2673343 17.022736 4285892664
-6.0587668 1.273509 17.098494 4285892664
-6.0499873 1.2797493 17.175058 4285892664
-10.138769 1.5610546 19.180571 4285892664
-9.9762201 1.5427742 19.000383 4285892664
-9.8676262 1.5327114 18.904959 4285892664
-9.7774954 1.5254397 18.838299 4285892664
-9.6214457 1.5077643 18.663855 4285892664
-9.4515429 1.4877428 18.464907 4285892664
-9.2749519 1.4664763 18.252825 4285892664
-9.115777 1.4477814 18.067163 4285892664
-8.9673681 1.4306316 17.897314 4285892664
-8.8354435 1.4159671 17.753069 4285892664
-8.7050247 1.4014066 17.609737 4285892664
-8.5504704 1.3827951 17.424135 4285892664
-8.375432 1.3606687 17.201763 4285892664
-8.1634912 1.3322879 16.914064 4285892664
-7.9776187 1.3079196 16.667803 4285892664
-7.8274646 1.2892177 16.480288 4285892664
-7.7349019 1.2799001 16.390356 4285892664
-7.6536322 1.2723769 16.319031 4285892664
-7.5801811 1.2660922 16.260542 4285892664
-7.5065055 1.2597083 16.200945 4285892664
-7.4373827 1.2540333 16.148682 4285892664
-7.3698287 1.2485697 16.098562 4285892664
-7.3037963 1.2433126 16.050541 4285892664
-7.2383275 1.2381005 16.00293 4285892664
-7.1734152 1.2329326 15.955724 4285892664
-7.1286035 1.2312076 15.944523 4285892664
-7.0865641 1.229951 15.938214 4285892664
-7.0472393 1.2291601 15.936774 4285892664
-7.0105772 1.2288328 15.940193 4285892664
-6.9774041 1.2291235 15.950097 4285892664
-6.9476709 1.230033 15.966508 4285892664
-6.9144292 1.2303245 15.976435 4285892664
-6.8854575 1.2313915 15.994524 4285892664
-6.8598552 1.2330831 16.019199 4285892664
-6.8333139 1.2346239 16.042309 4285892664
-6.8041363 1.2357 16.060543 4285892664
-6.7723479 1.2363083 16.073862 4285892664
-6.7447472 1.2377019 16.095472 4285892664
-6.717916 1.2392567 16.118799 4285892664
-6.6918478 1.2409738 16.143862 4285892664
-6.6640162 1.2423798 16.165661 4285892664
-6.6361098 1.2437897 16.187519 4285892664
-6.6089625 1.2453624 16.211117 4285892664
-6.5850649 1.2475784 16.241545 4285892664
-6.5602384 1.249643 16.270397 4285892664
-6.5344892 1.2515547 16.297655 4285892664
-6.5069952 1.2531502 16.321589 4285892664
-6.4794192 1.2547506 16.345592 4285892664
-6.4517603 1.2563558 16.369669 4285892664
-6.4240193 1.2579657 16.393816 4285892664
-6.3961945 1.2595805 16.418037 4285892664
-6.3674722 1.2610365 16.440592 4285892664
-6.3427286 1.2633172 16.471935 4285892664
-6.3170729 1.2654425 16.501656 4285892664
-6.2913179 1.2675759 16.531488 4285892664
-6.2646585 1.2695515 16.559668 4285892664
-6.2387066 1.2717006 16.589724 4285892664
-6.2134562 1.2740256 16.621679 4285892664
-6.1905017 1.2768643 16.659147 4285892664
-6.1682324 1.2798862 16.698608 4285892664
-6.1474433 1.2832642 16.741909 4285892664
-6.1297274 1.2873458 16.792774 4285892664
-6.1134872 1.2918009 16.847681 4285892664
-6.0955224 1.2959425 16.899292 4285892664
-6.0830417 1.3013383 16.964378 4285892664
-6.0680361 1.3062532 17.024382 4285892664
-6.0553207 1.3117429 17.090607 4285892664
-6.0473366 1.3183626 17.169016 4285892664
-10.179907 1.6138701 19.246122 4285892664
-9.9791641 1.5889713 19.005219 4285892664
-9.8657932 1.5778413 18.902145 4285892664
-9.7865505 1.5721027 18.853056 4285892664
-9.6438484 1.5560522 18.700359 4285892664
-9.4805584 1.5365095 18.512396 4285892664
-9.3043919 1.5146832 18.30126 4285892664
-9.1429281 1.4950639 18.112078 4285892664
-8.9977283 1.4779397 17.947788 4285892664
-8.8728266 1.4640141 17.815519 4285892664
-8.749053 1.4501446 17.683659 4285892664
-8.6016979 1.432202 17.510584 4285892664
-8.4318371 1.4103078 17.297451 4285892664
-8.2036381 1.3783565 16.982576 4285892664
-7.9998951 1.3502419 16.706087 4285892664
-7.8355074 1.3285595 16.49427 4285892664
-7.7397447 1.3184175 16.398874 4285892664
-7.65839 1.3106565 16.32745 4285892664
-7.5838857 1.3040047 16.267164 4285892664
-7.5091848 1.2972536 16.205801 4285892664
-7.4381223 1.2910718 16.150131 4285892664
-7.3714924 1.2856075 16.101665 4285892664
-7.3063593 1.2803532 16.055273 4285892664
-7.2417645 1.2751424 16.009264 4285892664
-7.1777029 1.2699745 15.963634 4285892664
-7.1337481 1.2683592 15.954042 4285892664
-7.0916705 1.2670673 15.947719 4285892664
-7.0523119 1.2662559 15.946273 4285892664
-7.0156202 1.2659236 15.949695 4285892664
-6.9824228 1.2662292 15.959609 4285892664
-6.9526701 1.2671739 15.976042 4285892664
-6.9185395 1.2673204 15.984351 4285892664
-6.8878317 1.2681073 15.999192 4285892664
-6.8596478 1.2693766 16.01897 4285892664
-6.8322506 1.2708098 16.040436 4285892664
-6.8030758 1.2719243 16.058666 4285892664
-6.77214 1.2727182 16.073633 4285892664
-6.7453852 1.2743224 16.096897 4285892664
-6.7185516 1.275931 16.12023 4285892664
-6.6916385 1.2775446 16.143631 4285892664
-6.6629677 1.2788367 16.163759 4285892664
-6.6342273 1.2801317 16.183933 4285892664
-6.6070848 1.2817578 16.207521 4285892664
-6.5823569 1.2838823 16.236242 4285892664
-6.5575356 1.2860148 16.265074 4285892664
-6.5326204 1.2881554 16.294014 4285892664
-6.5059576 1.2899715 16.319645 4285892664
-6.4792075 1.2917933 16.345358 4285892664
-6.4515486 1.2934538 16.369434 4285892664
-6.4246259 1.2952874 16.395309 4285892664
-6.3967981 1.2969582 16.419537 4285892664
-6.3688869 1.2986344 16.443836 4285892664
-6.3433266 1.3008235 16.473448 4285892664
-6.3184795 1.3031911 16.504929 4285892664
-6.2927198 1.3053976 16.534775 4285892664
-6.2668614 1.3076128 16.564737 4285892664
-6.2417078 1.3100084 16.596594 4285892664
-6.2180557 1.3127596 16.632156 4285892664
-6.1966982 1.3160449 16.673277 4285892664
-6.176024 1.3195233 16.716436 4285892664
-6.1544266 1.3228462 16.758028 4285892664
-6.136713 1.3270714 16.809013 4285892664
-6.1196775 1.3315047 16.862206 4285892664
-6.1009116 1.3356117 16.912064 4285892664
-6.0852299 1.3404691 16.969763 4285892664
-6.0670114 1.3448189 17.022247 4285892664
-6.0494666 1.3493831 17.077009 4285892664
-6.0422654 1.3563865 17.157192 4285892664
-10.228112 1.6682352 19.322916 4285892664
-9.9773006 1.6344094 19.002369 4285892664
-9.8561058 1.6216602 18.886711 4285892664
-9.789402 1.6178269 18.857794 4285892664
-9.6648378 1.6043248 18.734571 4285892664
-9.511241 1.5858403 18.562605 4285892664
-9.3354588 1.5634544 18.352364 4285892664
-9.1716328 1.5428787 18.159557 4285892664
-9.0269613 1.5253593 17.996395 4285892664
-8.9079151 1.5120441 17.874146 4285892664
-8.7884169 1.4985256 17.749765 4285892664
-8.6473389 1.4811635 17.587622 4285892664
-8.4830303 1.4596161 17.384308 4285892664
-8.2464838 1.4253033 17.055689 4285892664
-8.0255499 1.3933834 16.750154 4285892664
-7.8477144 1.3687166 16.515423 4285892664
-7.7496653 1.357883 16.416187 4285892664
-7.6661444 1.3495189 16.341085 4285892664
-7.5895548 1.3423079 16.277225 4285892664
-7.5118675 1.3348298 16.210663 4285892664
-7.4398112 1.3282912 16.153261 4285892664
-7.37222 1.3224956 16.103104 4285892664
-7.3089242 1.3174235 16.060009 4285892664
-7.2452059 1.3122239 16.015606 4285892664
-7.1828976 1.3072314 15.973187 4285892664
-7.1380076 1.3054053 15.961948 4285892664
-7.0958977 1.3040777 15.955613 4285892664
-7.0565109 1.3032464 15.954162 4285892664
-7.0189176 1.3027444 15.955959 4285892664
-6.9848313 1.3029004 15.964256 4285892664
-6.95507 1.3038796 15.9807 4285892664
-6.9200611 1.3038712 15.987382 4285892664
-6.8876243 1.3043573 15.998964 4285892664
-6.8568673 1.3051742 16.01383 4285892664
-6.8286233 1.3064891 16.03364 4285892664
-6.7994599 1.307641 16.051853 4285892664
-6.7693858 1.3086293 16.068455 4285892664
-6.7434835 1.3104521 16.093357 4285892664
-6.7166543 1.3121138 16.116678 4285892664
-6.6889048 1.3136127 16.138403 4285892664
-6.6585655 1.3146119 16.155174 4285892664
-6.6298394 1.3159493 16.175327 4285892664
-6.6010432 1.3172899 16.195526 4285892664
-6.577158 1.3196487 16.225885 4285892664
-6.5523467 1.321847 16.254673 4285892664
-6.5274425 1.3240538 16.283571 4285892664
-6.5016174 1.3260978 16.310869 4285892664
-6.4757013 1.3281488 16.338264 4285892664
-6.4496937 1.3302073 16.365757 4285892664
-6.4244132 1.3324461 16.395077 4285892664
-6.3974023 1.3343463 16.421036 4285892664
-6.3694887 1.3360788 16.445341 4285892664
-6.343926 1.3383399 16.47496 4285892664
-6.3190751 1.3407851 16.506447 4285892664
-6.2941222 1.3432403 16.538065 4285892664
-6.2690668 1.3457057 16.569813 4285892664
-6.2455182 1.3485361 16.605253 4285892664
-6.2234674 1.3517367 16.644442 4285892664
-6.2037125 1.3554921 16.689241 4285892664
-6.1830325 1.35909 16.7325 4285892664
-6.1622314 1.3627092 16.776014 4285892664
-6.1437173 1.3668976 16.825296 4285892664
-6.1250772 1.371114 16.87491 4285892664
-6.1063118 1.3753591 16.92486 4285892664
-6.0866151 1.3794469 16.973274 4285892664
-6.0635786 1.3828115 17.014444 4285892664
-6.0396161 1.3860062 17.053938 4285892664
-6.0339823 1.3935827 17.137697 4285892664
-10.280192 1.7237135 19.405872 4285892664
-9.9610415 1.6773992 18.976507 4285892664
-9.8292418 1.6624717 18.843674 4285892664
-9.7782707 1.6611962 18.839949 4285892664
-9.681344 1.6520348 18.761503 4285892664
-9.543622 1.6357651 18.615589 4285892664
-9.3725023 1.6135665 18.413277 4285892664
-9.2061024 1.5919801 18.216543 4285892664
-9.0631695 1.5742887 18.056568 4285892664
-8.9432974 1.5604768 17.933264 4285892664
-8.8203897 1.5459988 17.803484 4285892664
-8.6771355 1.5277781 17.637964 4285892664
-8.5142117 1.5058806 17.437267 4285892664
-8.2725582 1.4696866 17.100235 4285892664
-8.042675 1.4352554 16.779617 4285892664
-7.853724 1.4078816 16.525906 4285892664
-7.7535129 1.39635 16.422983 4285892664
-7.6699209 1.3877379 16.347797 4285892664
-7.5932679 1.3803139 16.283865 4285892664
-7.5145516 1.3724365 16.215527 4285892664
-7.4424534 1.365707 16.158079 4285892664
-7.3776369 1.3602667 16.11289 4285892664
-7.3189054 1.355911 16.078024 4285892664
-7.2587166 1.3512385 16.040079 4285892664
-7.1980405 1.3464271 16.000757 4285892664
-7.1521316 1.3443742 15.987822 4285892664
-7.1081376 1.3426672 15.978185 4285892664
-7.0677853 1.3416438 15.975088 4285892664
-7.0283661 1.3407911 15.973624 4285892664
-6.9924831 1.3406179 15.978678 4285892664
-6.9609509 1.3412937 15.991889 4285892664
-6.9241796 1.3409506 15.995313 4285892664
-6.8899999 1.3411169 16.003637 4285892664
-6.8566599 1.3414533 16.013601 4285892664
-6.8284159 1.3428116 16.033411 4285892664
-6.7984004 1.3438315 16.049978 4285892664
-6.7683296 1.3448536 16.066578 4285892664
-6.7415833 1.3465627 16.089819 4285892664
-6.7139158 1.3481052 16.111469 4285892664
-6.686173 1.3496516 16.133179 4285892664
-6.6541691 1.3503389 16.146603 4285892664
-6.6237888 1.351373 16.163387 4285892664
-6.5950131 1.3527552 16.183556 4285892664
-6.5703096 1.3550096 16.212179 4285892664
-6.546339 1.3574469 16.242599 4285892664
-6.5222721 1.359894 16.273144 4285892664
-6.4981079 1.3623512 16.303812 4285892664
-6.4738445 1.3648182 16.334606 4285892664
-6.449482 1.3672955 16.365524 4285892664
-6.4258399 1.3699608 16.398298 4285892664
-6.4004583 1.3722804 16.427742 4285892664
-6.3749795 1.3746088 16.457298 4285892664
-6.3502173 1.3771261 16.48872 4285892664
-6.3261652 1.3798347 16.522032 4285892664
-6.3020072 1.3825551 16.555489 4285892664
-6.2785516 1.3854702 16.59087 4285892664
-6.255794 1.3885821 16.628206 4285892664
-6.2337313 1.3918939 16.667524 4285892664
-6.2131648 1.3955938 16.710667 4285892664
-6.1924777 1.3993152 16.754061 4285892664
-6.1716695 1.4030585 16.797712 4285892664
-6.1523499 1.4072013 16.845306 4285892664
-6.1329045 1.4113708 16.893208 4285892664
-6.1141391 1.4157584 16.943291 4285892664
-6.0920238 1.4194068 16.986187 4285892664
-6.0681753 1.4226897 17.025541 4285892664
-6.0434017 1.4257952 17.063194 4285892664
-10.343137 1.7815694 19.506107 4285892664
-9.9496145 1.7210757 18.95837 4285892664
-9.8056307 1.7035956 18.805866 4285892664
-9.7640734 1.7039225 18.817148 4285892664
-9.6902561 1.6985693 18.776106 4285892664
-9.5702429 1.6849883 18.659172 4285892664
-9.4084053 1.6638408 18.472317 4285892664
-9.2436581 1.6419748 18.278622 4285892664
-9.1010532 1.6238794 18.119518 4285892664
-8.9816513 1.6097999 17.997335 4285892664
-8.8539124 1.594075 17.859804 4285892664
-8.7109461 1.5754259 17.695072 4285892664
-8.5505285 1.5534024 17.498928 4285892664
-8.3034306 1.5152191 17.152956 4285892664
-8.0598783 1.4773184 16.809216 4285892664
-7.860785 1.4473054 16.538198 4285892664
-7.759398 1.4352394 16.43331 4285892664
-7.6757002 1.4263738 16.357996 4285892664
-7.5999374 1.4189179 16.295679 4285892664
-7.5182052 1.4102571 16.222099 4285892664
-7.445097 1.4031532 16.162901 4285892664
-7.3821235 1.3979191 16.121019 4285892664
-7.3261251 1.3939755 16.091093 4285892664
-7.2686038 1.3896985 16.058027 4285892664
-7.2078032 1.3847415 16.018583 4285892664
-7.1618114 1.382629 16.005602 4285892664
-7.1168485 1.3806983 15.994294 4285892664
-7.0746636 1.379298 15.987915 4285892664
-7.0334368 1.3780748 15.983178 4285892664
-6.9957757 1.377552 15.984972 4285892664
-6.9616146 1.3777281 15.993293 4285892664
-6.9248381 1.3773801 15.996716 4285892664
-6.8880706 1.3770322 16.000141 4285892664
-6.8530254 1.3770335 16.00683 4285892664
-6.8247924 1.3784336 16.026623 4285892664
-6.7947898 1.3794862 16.043175 4285892664
-6.7638841 1.3803654 16.058111 4285892664
-6.7363048 1.3819495 16.079674 4285892664
-6.7094941 1.3837143 16.102949 4285892664
-6.6817641 1.3853076 16.124632 4285892664
-6.6506147 1.3861957 16.139708 4285892664
-6.6210804 1.3874403 16.158146 4285892664
-6.5931425 1.3890436 16.179974 4285892664
-6.5692706 1.3915443 16.210264 4285892664
-6.5469565 1.3944143 16.244057 4285892664
-6.5245404 1.3972974 16.278006 4285892664
-6.5020204 1.4001937 16.312111 4285892664
-6.4793968 1.4031035 16.346375 4285892664
-6.4550219 1.4056611 16.377346 4285892664
-6.433012 1.4087797 16.413643 4285892664
-6.4092531 1.4115452 16.446634 4285892664
-6.3845711 1.4141372 16.47802 4285892664
-6.3597879 1.4167404 16.509537 4285892664
-6.3357167 1.4195405 16.542948 4285892664
-6.3123536 1.4225407 16.578281 4285892664
-6.2888799 1.4255548 16.613781 4285892664
-6.2661076 1.4287723 16.651239 4285892664
-6.2432213 1.432006 16.688887 4285892664
-6.2226486 1.4358294 16.732164 4285892664
-6.2011452 1.4394829 16.773869 4285892664
-6.1787138 1.4429637 16.813972 4285892664
-6.1577768 1.4468516 16.857983 4285892664
-6.1375232 1.4509581 16.904114 4285892664
-6.1179504 1.4552871 16.952404 4285892664
-6.0942187 1.4586544 16.991589 4285892664
-6.0711703 1.4622378 17.032867 4285892664
-6.0496035 1.4662408 17.07818 4285892664
-9.7836828 1.7447937 18.770729 4285892664
-9.7483759 1.7462438 18.791925 4285892664
-9.6945896 1.7443635 18.783278 4285892664
-9.5925035 1.7336801 18.695639 4285892664
-9.4416714 1.7139874 18.527033 4285892664
-9.2843742 1.6929225 18.345915 4285892664
-9.1434135 1.6746734 18.189896 4285892664
-9.0217037 1.6598213 18.06424 4285892664
-8.8916492 1.6432737 17.923187 4285892664
-8.7488689 1.6241851 17.759108 4285892664
-8.5908804 1.602052 17.567427 4285892664
-8.338047 1.561775 17.212055 4285892664
-8.0804529 1.5201995 16.844585 4285892664
-7.8699455 1.4872049 16.554108 4285892664
-7.767333 1.4745849 16.447184 4285892664
-7.684495 1.4656535 16.373446 4285892664
-7.608592 1.4579781 16.310968 4285892664
-7.5237985 1.448496 16.232084 4285892664
-7.4486961 1.4408163 16.169413 4285892664
-7.3847337 1.435252 16.125809 4285892664
-7.3305669 1.4315695 16.099192 4285892664
-7.2739134 1.4273565 16.067734 4285892664
-7.2139544 1.4224412 16.029871 4285892664
-7.1670094 1.4200906 16.015217 4285892664
-7.1220031 1.4181083 16.003887 4285892664
-7.0780044 1.4163115 15.994224 4285892664
-7.0332298 1.4143393 15.982949 4285892664
-6.9938188 1.4134481 15.981482 4285892664
-6.9579268 1.4132748 15.986537 4285892664
-6.9194398 1.4125637 15.986697 4285892664
-6.8827028 1.4122113 15.990119 4285892664
-6.8468299 1.4120381 15.995172 4285892664
-6.8177633 1.4132992 16.013294 4285892664
-6.7886353 1.4145632 16.031456 4285892664
-6.7577534 1.4154693 16.04637 4285892664
-6.7293491 1.4169183 16.066248 4285892664
-6.7025571 1.4187329 16.089479 4285892664
-6.6773615 1.420916 16.116098 4285892664
-6.6487346 1.4223778 16.136148 4285892664
-6.6208715 1.4240259 16.157915 4285892664
-6.5954251 1.4262275 16.184769 4285892664
-6.5740371 1.4293561 16.220135 4285892664
-6.5542035 1.4328698 16.25906 4285892664
-6.5342627 1.4364024 16.298195 4285892664
-6.5133848 1.4397675 16.335829 4285892664
-6.4907446 1.4427743 16.370213 4285892664
-6.4671726 1.4456065 16.403023 4285892664
-6.4459724 1.4490193 16.441198 4285892664
-6.4221892 1.4518788 16.474321 4285892664
-6.3983021 1.4547509 16.507591 4285892664
-6.3726683 1.4572521 16.537477 4285892664
-6.347754 1.4599552 16.56925 4285892664
-6.3243704 1.4630564 16.604719 4285892664
-6.3000612 1.465978 16.638563 4285892664
-6.2764578 1.4691076 16.674358 4285892664
-6.2527437 1.4722521 16.710321 4285892664
-6.2305393 1.4758056 16.750093 4285892664
-6.2074065 1.47918 16.788248 4285892664
-6.1833477 1.4823723 16.824757 4285892664
-6.1607895 1.4859797 16.865135 4285892664
-6.1381111 1.4896066 16.905731 4285892664
-6.1169233 1.4936572 16.950289 4285892664
-6.0923872 1.4969189 16.987581 4285892664
-6.0717525 1.5012176 17.034517 4285892664
-9.8066683 1.7940605 18.807793 4285892664
-9.7604666 1.7935588 18.811586 4285892664
-9.7127409 1.7927716 18.812881 4285892664
-9.6209278 1.7837427 18.742167 4285892664
-9.4840393 1.7661704 18.596684 4285892664
-9.3383799 1.7467793 18.435127 4285892664
-9.20156 1.7288803 18.286449 4285892664
-9.0744104 1.712653 18.152241 4285892664
-8.944355 1.6957151 18.011656 4285892664
-8.8078289 1.6773716 17.858593 4285892664
-8.6629667 1.6572413 17.689688 4285892664
-8.4060621 1.6151671 17.328041 4285892664
-8.1210537 1.5671991 16.914253 4285892664
-7.8854103 1.5284361 16.580872 4285892664
-7.7773314 1.5144207 16.464632 4285892664
-7.6953216 1.5054286 16.392431 4285892664
-7.6212249 1.4979225 16.333225 4285892664
-7.5342546 1.4877681 16.250631 4285892664
-7.455162 1.4790957 16.181002 4285892664
-7.3873467 1.4726152 16.130604 4285892664
-7.3340826 1.4690248 16.105629 4285892664
-7.2773886 1.464699 16.074137 4285892664
-7.2182956 1.459838 16.03788 4285892664
-7.1722155 1.457612 16.024849 4285892664
-7.1271663 1.4555782 16.013496 4285892664
-7.0831256 1.453735 16.003813 4285892664
-7.0383091 1.4517114 15.992518 4285892664
-6.9979873 1.4506149 15.989411 4285892664
-6.9620714 1.4504416 15.99447 4285892664
-6.9261556 1.4502683 15.999528 4285892664
-6.8902397 1.4500948 16.004585 4285892664
-6.8560381 1.4502903 16.012915 4285892664
-6.8286471 1.4519639 16.034365 4285892664
-6.8003321 1.4534564 16.054226 4285892664
-6.7702503 1.4545813 16.070835 4285892664
-6.7434969 1.4564526 16.094093 4285892664
-6.7183523 1.4587029 16.120741 4285892664
-6.6956487 1.4615239 16.152487 4285892664
-6.6711645 1.4639801 16.181017 4285892664
-6.6474271 1.4666346 16.211338 4285892664
-6.6244326 1.4694898 16.243473 4285892664
-6.6055288 1.4733111 16.284254 4285892664
-6.5865169 1.4771541 16.325268 4285892664
-6.5673957 1.4810191 16.366514 4285892664
-6.5448155 1.4841303 16.401066 4285892664
-6.5204592 1.4868665 16.432299 4285892664
-6.4943357 1.4892232 16.460167 4285892664
-6.4697819 1.4919804 16.491642 4285892664
-6.4442964 1.4945521 16.521484 4285892664
-6.4178848 1.4969361 16.549671 4285892664
-6.3922043 1.4995271 16.579739 4285892664
-6.3656001 1.5019289 16.608135 4285892664
-6.3405437 1.5047388 16.640219 4285892664
-6.3145628 1.5073601 16.670637 4285892664
-6.289299 1.5101928 16.70298 4285892664
-6.2639289 1.5130372 16.735458 4285892664
-6.2400813 1.5162997 16.771723 4285892664
-6.2161207 1.5195777 16.808161 4285892664
-6.1904216 1.5224615 16.841084 4285892664
-6.1662345 1.5257692 16.877851 4285892664
-6.1411219 1.5288858 16.912933 4285892664
-6.1158962 1.5320165 16.948174 4285892664
-6.0921659 1.5355787 16.987337 4285892664
-9.8501053 1.8474164 18.87772 4285892664
-9.7896633 1.8442417 18.858879 4285892664
-9.7386866 1.8428454 18.855143 4285892664
-9.6525764 1.8347034 18.793959 4285892664
-9.5297899 1.8194227 18.671885 4285892664
-9.3959589 1.8018619 18.530239 4285892664
-9.2633266 1.7843688 18.389009 4285892664
-9.1346912 1.7674904 18.252871 4285892664
-9.00177 1.7496103 18.108023 4285892664
-8.8715773 1.7320969 17.966146 4285892664
-8.7401829 1.7141773 17.820641 4285892664
-8.4861403 1.6716543 17.464579 4285892664
-8.173316 1.616949 17.003895 4285892664
-7.9030452 1.5702645 16.611376 4285892664
-7.7873573 1.5543673 16.482126 4285892664
-7.706181 1.5453246 16.411476 4285892664
-7.6358919 1.5384157 16.359041 4285892664
-7.5457158 1.5273579 16.27095 4285892664
-7.4616399 1.5174478 16.19261 4285892664
-7.38902 1.5098133 16.133724 4285892664
-7.334805 1.5059376 16.107067 4285892664
-7.2790227 1.5016953 16.077225 4285892664
-7.22082 1.4969012 16.042599 4285892664
-7.1756206 1.4948109 16.031202 4285892664
-7.1314397 1.4929172 16.021479 4285892664
-7.0882549 1.4912182 16.013418 4285892664
-7.0451627 1.4895229 16.005377 4285892664
-7.0065494 1.4887799 16.005531 4285892664
-6.9723325 1.4889858 16.013872 4285892664
-6.9389672 1.4893819 16.023857 4285892664
-6.9055758 1.4897783 16.033852 4285892664
-6.8721566 1.4901751 16.043852 4285892664
-6.844718 1.4919063 16.065399 4285892664
-6.8172069 1.493642 16.087002 4285892664
-6.7879143 1.4949989 16.105345 4285892664
-6.7611113 1.4969351 16.128717 4285892664
-6.7367754 1.4994552 16.157173 4285892664
-6.7157412 1.5027597 16.192451 4285892664
-6.693758 1.5058855 16.226213 4285892664
-6.6716723 1.5090257 16.26013 4285892664
-6.6503315 1.5123767 16.29591 4285892664
-6.632267 1.5165341 16.338728 4285892664
-6.6132488 1.5205177 16.380075 4285892664
-6.5941215 1.5245242 16.421659 4285892664
-6.5698156 1.5273491 16.452999 4285892664
-6.5445685 1.5299841 16.482716 4285892664
-6.5175443 1.5322253 16.509024 4285892664
-6.4912672 1.5346764 16.537186 4285892664
-6.4640608 1.5369329 16.563673 4285892664
-6.4367647 1.5391972 16.590252 4285892664
-6.4093771 1.5414689 16.616917 4285892664
-6.3818994 1.543748 16.643671 4285892664
-6.3551545 1.5462408 16.672316 4285892664
-6.3274903 1.5485358 16.699255 4285892664
-6.3013754 1.5512536 16.729916 4285892664
-6.2759771 1.55419 16.762518 4285892664
-6.2521086 1.5575575 16.798923 4285892664
-6.2273097 1.5607307 16.83366 4285892664
-6.2007694 1.563496 16.864853 4285892664
-6.1749368 1.566484 16.898026 4285892664
-6.1473742 1.5690594 16.927605 4285892664
-6.1189036 1.5714309 16.955421 4285892664
-9.9161549 1.9055753 18.983984 4285892664
-9.8331509 1.8979919 18.929255 4285892664
-9.775671 1.8953332 18.915329 4285892664
-9.6905909 1.887226 18.85614 4285892664
-9.5760078 1.8732178 18.747854 4285892664
-9.4572382 1.858248 18.631453 4285892664
-9.3317337 1.8417946 18.502581 4285892664
-9.2028503 1.8245078 18.366632 4285892664
-9.0681839 1.8058931 18.219471 4285892664
-8.9429903 1.7890153 18.08662 4285892664
-8.8267059 1.7737864 17.967361 4285892664
-8.5814562 1.7320684 17.627073 4285892664
-8.2388525 1.6699586 17.116272 4285892664
-7.9260564 1.6133847 16.651136 4285892664
-7.798439 1.5946382 16.501451 4285892664
-7.7170739 1.585342 16.430578 4285892664
-7.6506181 1.5790762 16.384962 4285892664
-7.5581923 1.5672835 16.293055 4285892664
-7.4681301 1.5558729 16.204243 4285892664
-7.3888092 1.5466311 16.133492 4285892664
-7.3345952 1.5426611 16.106836 4285892664
-7.2788134 1.5383152 16.076994 4285892664
-7.2215223 1.5336001 16.04402 4285892664
-7.1772213 1.531657 16.034266 4285892664
-7.1348219 1.5301101 16.027826 4285892664
