# .PCD v0.7 - Point Cloud Data file format
VERSION 0.7
FIELDS x y z rgb
SIZE 4 4 4 4
TYPE F F F U
COUNT 1 1 1 1
WIDTH 1143
HEIGHT 1
VIEWPOINT 0 0 0 1 0 0 0
POINTS 1143
DATA ascii
-7.4304261 0.89896065 17.808603 4285892664
-7.4075041 0.90086055 17.845716 4285892664
-7.3834972 0.90265024 17.881098 4285892664
-7.35743 0.90420884 17.912802 4285892664
-7.3283381 0.90541404 17.93886 4285892664
-7.3040261 0.90722346 17.974638 4285892664
-7.2786365 0.90892011 18.008633 4285892664
-7.2521729 0.91050249 18.040819 4285892664
-7.2188416 0.91124004 18.059452 4285892664
-7.1883378 0.91234392 18.08399 4285892664
-7.1596737 0.91369486 18.112518 4285892664
-7.1472325 0.91713834 18.174755 4285892664
-7.1385484 0.92110711 18.245506 4285892664
-7.1317196 0.92536455 18.320976 4285892664
-7.0755663 0.92324531 18.293707 4285892664
-7.0482569 0.92488235 18.326994 4285892664
-7.1782093 0.94729221 18.695551 4285892664
-10.802471 1.0791131 19.572151 4285892664
-10.674894 1.0709873 19.458908 4285892664
-10.559218 1.063966 19.361996 4285892664
-10.443558 1.0568836 19.264061 4285892664
-10.332716 1.0502179 19.172237 4285892664
-10.218715 1.0431756 19.074684 4285892664
-10.100269 1.0356216 18.969381 4285892664
-9.9762173 1.0274318 18.85446 4285892664
-9.8542738 1.0193813 18.741489 4285892664
-9.7258377 1.0105939 18.617374 4285892664
-9.587285 1.0006878 18.476377 4285892664
-9.4502983 0.99085116 18.336266 4285892664
-9.322793 0.98190403 18.209328 4285892664
-9.1964788 0.97299713 18.082853 4285892664
-9.0676174 0.96373993 17.950987 4285892664
-8.9389515 0.95441592 17.817972 4285892664
-8.8189297 0.94591498 17.69717 4285892664
-8.70821 0.93831861 17.589823 4285892664
-8.6039801 0.93134034 17.491646 4285892664
-8.5204878 0.92651355 17.425711 4285892664
-8.4456835 0.92257404 17.373051 4285892664
-8.3781328 0.91937971 17.331545 4285892664
-8.3175812 0.91691405 17.300962 4285892664
-8.2595272 0.91469646 17.27408 4285892664
-8.206027 0.91295612 17.254356 4285892664
-8.1569605 0.9116869 17.241713 4285892664
-8.1122255 0.91088468 17.236095 4285892664
-8.0717354 0.9105466 17.237474 4285892664
-8.0333481 0.91044015 17.242348 4285892664
-7.9970298 0.91056514 17.250717 4285892664
-7.9627504 0.91092181 17.26259 4285892664
-7.9274225 0.91116273 17.27272 4285892664
-7.8930907 0.91151983 17.284611 4285892664
-7.8587303 0.91187721 17.296511 4285892664
-7.8283734 0.91269994 17.315468 4285892664
-7.7959476 0.91329122 17.330931 4285892664
-7.7614751 0.91365021 17.342875 4285892664
-7.7309594 0.91447639 17.361917 4285892664
-7.7013783 0.91542119 17.382776 4285892664
-7.6737142 0.91660291 17.407246 4285892664
-7.6489406 0.91814131 17.437155 4285892664
-7.6260538 0.91992188 17.470772 4285892664
-7.6050458 0.92194778 17.50815 4285892664
-7.580976 0.92362511 17.540253 4285892664
-7.557796 0.92542893 17.574308 4285892664
-7.535502 0.92736089 17.610342 4285892664
-7.5121226 0.92918062 17.644697 4285892664
-7.4896255 0.93112963 17.681053 4285892664
-7.4699717 0.93345386 17.723164 4285892664
-7.4511933 0.93591362 17.767382 4285892664
-7.4293609 0.93801695 17.80619 4285892664
-7.4054594 0.93988252 17.841398 4285892664
-7.3804755 0.94163156 17.874855 4285892664
-7.3524609 0.94301289 17.90271 4285892664
-7.3233829 0.94427335 17.928736 4285892664
-7.299078 0.9461661 17.964466 4285892664
-7.2727261 0.94781435 17.996479 4285892664
-7.2443385 0.94921541 18.024729 4285892664
-7.2110395 0.94998598 18.043325 4285892664
-7.1796012 0.95101219 18.065861 4285892664
-7.1509604 0.95242345 18.094322 4285892664
-7.1375403 0.95589268 18.154425 4285892664
-7.129786 0.96016818 18.226974 4285892664
-7.1277585 0.96527314 18.312346 4285892664
-7.0783572 0.96397096 18.299212 4285892664
-7.0500841 0.96555573 18.3305 4285892664
-7.1264586 0.98162907 18.584974 4285892664
-10.78873 1.1233445 19.551628 4285892664
-10.649768 1.1136694 19.421591 4285892664
-10.537824 1.1067019 19.330002 4285892664
-10.437024 1.1008295 19.253923 4285892664
-10.331038 1.0943632 19.169287 4285892664
-10.21707 1.0870017 19.071774 4285892664
-10.094095 1.0786252 18.959652 4285892664
-9.9627476 1.0692869 18.83366 4285892664
-9.8323832 1.0599678 18.7078 4285892664
-9.695962 1.049916 18.571323 4285892664
-9.555418 1.0393295 18.427044 4285892664
-9.4179087 1.0289717 18.285877 4285892664
-9.2924891 1.0198257 18.161921 4285892664
-9.1617994 1.010021 18.028385 4285892664
-9.0325632 1.0002826 17.895657 4285892664
-8.907217 0.99087918 17.767586 4285892664
-8.7926912 0.98257965 17.655226 4285892664
-8.6860275 0.97507221 17.554121 4285892664
-8.5879421 0.96844763 17.465593 4285892664
-8.5080643 0.96379614 17.40534 4285892664
-8.4356432 0.95993781 17.356428 4285892664
-8.3703995 0.95685256 17.318588 4285892664
-8.3099298 0.95427912 17.288074 4285892664
-8.2530231 0.95208657 17.26301 4285892664
-8.1985207 0.95014799 17.241575 4285892664
-8.1505651 0.94894421 17.230711 4285892664
-8.1058731 0.94810635 17.225107 4285892664
-8.0664587 0.94787389 17.228235 4285892664
-8.0280981 0.94776231 17.233107 4285892664
-7.9928322 0.94801325 17.243216 4285892664
-7.9585714 0.9483853 17.255079 4285892664
-7.9253006 0.94887877 17.268705 4285892664
-7.8909779 0.94925147 17.28059 4285892664
-7.8566265 0.94962454 17.292486 4285892664
-7.8262763 0.95048392 17.311436 4285892664
-7.7928534 0.95097965 17.325125 4285892664
-7.7583938 0.95135421 17.337063 4285892664
-7.7278881 0.95221692 17.356091 4285892664
-7.6973233 0.95308125 17.375156 4285892664
-7.6686778 0.9541924 17.397821 4285892664
-7.6429243 0.9556753 17.425905 4285892664
-7.6190572 0.95741004 17.457674 4285892664
-7.598053 0.95952356 17.494984 4285892664
-7.5749779 0.96139801 17.528841 4285892664
-7.5527892 0.96340567 17.564667 4285892664
-7.530499 0.96542233 17.600655 4285892664
-7.5081081 0.96744823 17.636806 4285892664
-7.4865961 0.96961015 17.674973 4285892664
-7.4669433 0.97203791 17.717051 4285892664
-7.448164 0.97460711 17.76123 4285892664
-7.4273143 0.97693294 17.801895 4285892664
-7.4024363 0.97875243 17.83519 4285892664
-7.3755016 0.98031914 17.864815 4285892664
-7.3474984 0.98176092 17.892633 4285892664
-7.3184342 0.98307651 17.918627 4285892664
-7.2951074 0.98518354 17.956232 4285892664
-7.2677951 0.98677266 17.986279 4285892664
-7.2384539 0.98810273 18.012552 4285892664
-7.2042165 0.988774 18.029179 4285892664
-7.171845 0.98971176 18.049726 4285892664
-7.1413155 0.99091733 18.074221 4285892664
-7.1259642 0.99426544 18.130215 4285892664
-7.1181674 0.99871963 18.202518 4285892664
-7.1199374 1.0045859 18.295658 4285892664
-7.0753946 1.0039109 18.292625 4285892664
-7.0461731 1.0054287 18.321867 4285892664
-7.0823145 1.0164145 18.490602 4285892664
-10.793745 1.1694604 19.558477 4285892664
-10.634714 1.1572088 19.399048 4285892664
-10.523036 1.1499585 19.307745 4285892664
-10.430496 1.1447178 19.243797 4285892664
-10.323043 1.1378059 19.156931 4285892664
-10.207674 1.1299659 19.057266 4285892664
-10.080348 1.120741 18.938536 4285892664
-9.9448795 1.1105331 18.806213 4285892664
-9.8077116 1.1000435 18.669886 4285892664
-9.6634703 1.0886694 18.521284 4285892664
-9.5210419 1.0773933 18.373861 4285892664
-9.3844233 1.0666654 18.233803 4285892664
-9.2584963 1.0570452 18.108795 4285892664
-9.1210728 1.0460304 17.964495 4285892664
-8.9904041 1.035682 17.829195 4285892664
-8.8673048 1.0261028 17.704323 4285892664
-8.7595577 1.0181994 17.602369 4285892664
-8.6593533 1.0110928 17.511271 4285892664
-8.5685701 1.0050126 17.434206 4285892664
-8.4934473 1.0007021 17.381439 4285892664
-8.4245272 0.99707758 17.338066 4285892664
-8.3605022 0.99399483 17.302114 4285892664
-8.3001375 0.99131554 17.271687 4285892664
-8.2433271 0.98903286 17.246696 4285892664
-8.1899719 0.98714083 17.22707 4285892664
-8.1420813 0.98588699 17.216238 4285892664
-8.0984898 0.98514003 17.212399 4285892664
-8.0591154 0.98489749 17.215525 4285892664
-8.0228558 0.98503262 17.223879 4285892664
-7.9886408 0.98541981 17.235722 4285892664
-7.9554191 0.9859333 17.249323 4285892664
-7.9221616 0.98644751 17.262941 4285892664
-7.8888664 0.9869622 17.276573 4285892664
-7.8555346 0.98747736 17.29022 4285892664
-7.8241796 0.9882468 17.307404 4285892664
-7.7917686 0.98889041 17.322851 4285892664
-7.7573137 0.98928076 17.334785 4285892664
-7.7248197 0.98992586 17.350269 4285892664
-7.6942644 0.99082667 17.369322 4285892664
-7.664638 0.99185711 17.39019 4285892664
-7.6369181 0.99314612 17.414675 4285892664
-7.6120734 0.99482441 17.444601 4285892664
-7.5910745 0.99702543 17.481842 4285892664
-7.5689898 0.99910712 17.51745 4285892664
-7.5468068 1.0011983 17.553219 4285892664
-7.5255036 1.0034299 17.590981 4285892664
-7.5021367 1.0054091 17.625246 4285892664
-7.4816089 1.0077933 17.665201 4285892664
-7.4629359 1.0104558 17.709082 4285892664
-7.4441562 1.0131335 17.753214 4285892664
-7.4223285 1.0154232 17.79195 4285892664
-7.3974581 1.0173187 17.825201 4285892664
-7.3705344 1.0189511 17.854788 4285892664
-7.3435178 1.020589 17.884478 4285892664
-7.3154359 1.0220963 17.912355 4285892664
-7.2921119 1.0242927 17.949932 4285892664
-7.2648053 1.0259492 17.979954 4285892664
-7.2335443 1.02706 18.002333 4285892664
-7.1993279 1.0277592 18.01894 4285892664
-7.1650615 1.0284594 18.035572 4285892664
-7.1326499 1.0294375 18.056126 4285892664
-7.1134768 1.0323644 18.10413 4285892664
-7.1046777 1.0368538 18.174187 4285892664
-7.1082826 1.0432351 18.270969 4285892664
-7.0657387 1.0428175 18.271975 4285892664
-7.0365443 1.0443963 18.30114 4285892664
-7.0474081 1.0520382 18.415907 4285892664
-10.522941 1.1947345 19.307144 4285892664
-10.443274 1.1907279 19.262268 4285892664
-10.329268 1.1827902 19.165745 4285892664
-10.207581 1.173905 19.056677 4285892664
-10.077228 1.1639476 18.933397 4285892664
-9.9418306 1.1533194 18.801167 4285892664
-9.803297 1.1422316 18.662745 4285892664
-9.6521654 1.1295798 18.503595 4285892664
-9.5100374 1.1178609 18.35655 4285892664
-9.3710461 1.1064006 18.212751 4285892664
-9.2441435 1.0962558 18.086128 4285892664
-9.0970383 1.0836278 17.926626 4285892664
-8.9620943 1.0723253 17.784437 4285892664
-8.8384943 1.0622699 17.65855 4285892664
-8.7371998 1.0547932 17.566578 4285892664
-8.6431704 1.0481201 17.485123 4285892664
-8.5571852 1.0423571 17.415602 4285892664
-8.4855614 1.038285 17.368368 4285892664
-8.4178391 1.0346504 17.326868 4285892664
-8.3538904 1.031444 17.290983 4285892664
-8.294673 1.0287898 17.262373 4285892664
-8.2389812 1.0265468 17.239176 4285892664
-8.1856642 1.0245776 17.219576 4285892664
-8.138855 1.0234038 17.210503 4285892664
-8.0952835 1.0226258 17.206667 4285892664
-8.0559263 1.0223731 17.209797 4285892664
-8.0207119 1.0226443 17.219885 4285892664
-7.9875326 1.0231782 17.233469 4285892664
-7.9543157 1.0237126 17.247068 4285892664
-7.922081 1.0243794 17.262432 4285892664
-7.8898005 1.0250468 17.277819 4285892664
-7.8574767 1.0257154 17.293226 4285892664
-7.8251061 1.0263847 17.308655 4285892664
-7.7916875 1.0269228 17.32234 4285892664
-7.7572327 1.0273291 17.334276 4285892664
-7.7237434 1.0278682 17.34799 4285892664
-7.6921992 1.0286733 17.365263 4285892664
-7.6606021 1.0294797 17.382566 4285892664
-7.631907 1.0306873 17.405243 4285892664
-7.6070714 1.0324329 17.435133 4285892664
-7.5850916 1.0345877 17.470526 4285892664
-7.5639939 1.0368874 17.507887 4285892664
-7.5427966 1.0391982 17.545427 4285892664
-7.5214958 1.04152 17.583147 4285892664
-7.4981337 1.0435791 17.617376 4285892664
-7.4776073 1.0460597 17.65729 4285892664
-7.4599137 1.0489684 17.702982 4285892664
-7.4421124 1.0518944 17.748947 4285892664
-7.4202867 1.0542779 17.787663 4285892664
-7.3954186 1.0562512 17.820896 4285892664
-7.3675241 1.0578092 17.848568 4285892664
-7.339541 1.0593722 17.876329 4285892664
-7.3124394 1.0610821 17.906092 4285892664
-7.2900877 1.0635105 17.945557 4285892664
-7.2618184 1.0650917 17.973635 4285892664
-7.2296038 1.0661042 17.994061 4285892664
-7.1963639 1.0669749 18.012592 4285892664
-7.1630659 1.0678471 18.031155 4285892664
-7.1297102 1.0687209 18.049749 4285892664
-7.1076827 1.071332 18.091835 4285892664
-7.0988655 1.0760005 18.161774 4285892664
-7.1024284 1.082636 18.258389 4285892664
-7.0656528 1.0830907 18.271435 4285892664
-7.0393186 1.0851818 18.306648 4285892664
-7.0444374 1.0922422 18.409218 4285892664
-10.527739 1.2400826 19.313755 4285892664
-10.462551 1.2376183 19.290361 4285892664
-10.34184 1.2285805 19.184006 4285892664
-10.216789 1.2189467 19.070004 4285892664
-10.08471 1.2083888 18.944204 4285892664
-9.9491329 1.1973163 18.811764 4285892664
-9.8089714 1.1855917 18.670931 4285892664
-9.6548767 1.1720775 18.507307 4285892664
-9.5113125 1.1597153 18.358084 4285892664
-9.3709583 1.1476296 18.212198 4285892664
-9.2388811 1.1364442 18.077557 4285892664
-9.084403 1.1223996 17.906527 4285892664
-8.9437056 1.1099253 17.755224 4285892664
-8.8193703 1.0993642 17.628035 4285892664
-8.7207823 1.0919133 17.540192 4285892664
-8.6316261 1.0855734 17.46636 4285892664
-8.5480833 1.0798792 17.400652 4285892664
-8.4788017 1.0759343 17.357111 4285892664
-8.412261 1.0722997 17.317465 4285892664
-8.3483763 1.0689689 17.281637 4285892664
-8.2902899 1.0663497 17.254829 4285892664
-8.2357044 1.0641564 17.233412 4285892664
-8.1845274 1.0623833 17.217323 4285892664
-8.1377258 1.0611622 17.208252 4285892664
-8.094162 1.060353 17.20442 4285892664
-8.0548105 1.0600898 17.20755 4285892664
-8.0206318 1.0605078 17.219378 4285892664
-7.987452 1.0610627 17.232962 4285892664
-7.9542351 1.0616183 17.246559 4285892664
-7.9230194 1.0624481 17.263676 4285892664
-7.8907356 1.0631422 17.279064 4285892664
-7.858407 1.0638373 17.294474 4285892664
-7.8250256 1.0643959 17.308146 4285892664
-7.7916069 1.0649552 17.321831 4285892664
-7.7551532 1.065102 17.330233 4285892664
-7.7206779 1.0655243 17.342175 4285892664
-7.6871638 1.0660849 17.355894 4285892664
-7.6545982 1.066784 17.371403 4285892664
-7.6249352 1.0678992 17.392267 4285892664
-7.6001115 1.0697107 17.422104 4285892664
-7.5781379 1.0719473 17.457434 4285892664
-7.557045 1.0743341 17.494726 4285892664
-7.5368309 1.0768733 17.534012 4285892664
-7.5165138 1.0794255 17.573498 4285892664
-7.4941354 1.0817058 17.609516 4285892664
-7.4745889 1.0844257 17.65123 4285892664
-7.4578719 1.0875919 17.698742 4285892664
-7.4410505 1.090778 17.746553 4285892664
-7.4192243 1.0932559 17.785257 4285892664
-7.3933806 1.0951612 17.816591 4285892664
-7.3654904 1.0967803 17.84425 4285892664
-7.337513 1.0984046 17.871996 4285892664
-7.3113852 1.1003293 17.903652 4285892664
-7.2880654 1.1027058 17.941185 4285892664
-7.2598014 1.104349 17.969248 4285892664
-7.2256684 1.1051029 17.9858 4285892664
-7.1943617 1.1063056 18.008186 4285892664
-7.1629815 1.1075112 18.030622 4285892664
-7.1296258 1.1084197 18.049217 4285892664
-7.1066484 1.1109843 18.089344 4285892664
-7.0968733 1.1156861 18.157284 4285892664
-7.1013823 1.1227373 18.255842 4285892664
-7.0674791 1.1236726 18.274912 4285892664
-7.0440044 1.1263138 18.3162 4285892664
-7.047235 1.1333531 18.414816 4285892664
-10.537442 1.2860707 19.327597 4285892664
-10.490029 1.2856846 19.330603 4285892664
-10.363989 1.2756599 19.21652 4285892664
-10.235353 1.2652249 19.097326 4285892664
-10.101325 1.2540289 18.968744 4285892664
-9.9683199 1.2428578 18.840321 4285892664
-9.8262234 1.2304499 18.696701 4285892664
-9.6716309 1.2163616 18.532457 4285892664
-9.5262442 1.2033024 18.380573 4285892664
-9.3814983 1.1902033 18.228037 4285892664
-9.243969 1.1778994 18.085033 4285892664
-9.0805588 1.1621751 17.900129 4285892664
-8.9338903 1.148451 17.739447 4285892664
-8.8086157 1.137355 17.610701 4285892664
-8.7102327 1.1296364 17.523096 4285892664
-8.6212568 1.1230686 17.449467 4285892664
-8.5412502 1.1176105 17.389332 4285892664
-8.4731646 1.1136659 17.347658 4285892664
-8.4077883 1.1100409 17.309849 4285892664
-8.3450384 1.106729 17.275831 4285892664
-8.2880592 1.104154 17.250807 4285892664
-8.2345591 1.1020197 17.231153 4285892664
-8.185503 1.1004626 17.218559 4285892664
-8.1376448 1.099052 17.207745 4285892664
-8.0951223 1.0983528 17.205652 4285892664
-8.0557652 1.0980788 17.20878 4285892664
-8.0215826 1.0985129 17.220612 4285892664
-7.9873714 1.0989473 17.232454 4285892664
-7.9551768 1.0996656 17.247799 4285892664
-7.9239583 1.1005274 17.264917 4285892664
-7.8916712 1.1012481 17.28031 4285892664
-7.858326 1.1018273 17.293964 4285892664
-7.8239369 1.1022644 17.305874 4285892664
-7.7885165 1.1025591 17.316032 4285892664
-7.7520776 1.1027112 17.32443 4285892664
-7.7156281 1.1028633 17.332832 4285892664
-7.6811461 1.1033013 17.34477 4285892664
-7.6476192 1.1038828 17.358488 4285892664
-7.6169968 1.1048949 17.377542 4285892664
-7.5902276 1.1064839 17.403755 4285892664
-7.5682631 1.1087999 17.438993 4285892664
-7.5481539 1.1114166 17.477989 4285892664
-7.5298977 1.1143386 17.520805 4285892664
-7.511538 1.1172771 17.563862 4285892664
-7.4901419 1.1197895 17.601664 4285892664
-7.4725504 1.1229074 17.64702 4285892664
-7.4577889 1.1264921 17.698221 4285892664
-7.4409676 1.1298008 17.746031 4285892664
-7.4201198 1.132525 17.786613 4285892664
-7.3942747 1.1345038 17.817955 4285892664
-7.365407 1.1360334 17.843723 4285892664
-7.337429 1.1377201 17.871469 4285892664
-7.3103309 1.1395652 17.901213 4285892664
-7.2870126 1.1420321 17.938736 4285892664
-7.2577848 1.1435834 17.964863 4285892664
-7.2236605 1.1443655 17.981407 4285892664
-7.1942773 1.1459237 18.007654 4285892664
-7.1648083 1.1474863 18.033976 4285892664
-7.1333489 1.1487416 18.056477 4285892664
-7.1113181 1.1515646 18.098604 4285892664
-7.1015573 1.1564542 18.166636 4285892664
-7.1041789 1.1634672 18.261318 4285892664
-7.0731349 1.1649207 18.286436 4285892664
-7.050611 1.1678295 18.329815 4285892664
-7.0529256 1.1749914 18.426573 4285892664
-10.573443 1.3354597 19.38019 4285892664
-10.535686 1.336301 19.397764 4285892664
-10.402263 1.3249911 19.273037 4285892664
-10.269651 1.3136827 19.148188 4285892664
-10.136359 1.3021845 19.020973 4285892664
-10.005528 1.2908987 18.896107 4285892664
-9.8624735 1.2779275 18.751326 4285892664
-9.7040005 1.2628326 18.581446 4285892664
-9.5535955 1.2486523 18.422123 4285892664
-9.4027414 1.2342813 18.260386 4285892664
-9.2555504 1.2202593 18.102577 4285892664
-9.0829773 1.2027445 17.903494 4285892664
-8.9313774 1.1878554 17.735109 4285892664
-8.8037977 1.1760374 17.602718 4285892664
-8.7043467 1.1678853 17.513386 4285892664
-8.6143322 1.1609292 17.438057 4285892664
-8.5344286 1.1552776 17.378031 4285892664
-8.4686432 1.1514953 17.340004 4285892664
-8.4044161 1.1478897 17.304014 4285892664
-8.3427877 1.1446067 17.271793 4285892664
-8.2858305 1.1419373 17.246784 4285892664
-8.2334137 1.1398724 17.228893 4285892664
-8.1864786 1.1385525 17.219795 4285892664
-8.1396608 1.1372359 17.21072 4285892664
-8.097126 1.1365099 17.208626 4285892664
-8.0567207 1.1360786 17.210014 4285892664
-8.0225334 1.1365285 17.221848 4285892664
-7.988318 1.1369786 17.23369 4285892664
-7.9550962 1.1375765 17.247292 4285892664
-7.9228578 1.1383225 17.262657 4285892664
-7.890574 1.1390693 17.278046 4285892664
-7.857234 1.1396695 17.291698 4285892664
-7.8228493 1.1401224 17.303606 4285892664
-7.7874327 1.1404276 17.313761 4285892664
-7.7500014 1.1404369 17.320395 4285892664
-7.7145548 1.1407423 17.330557 4285892664
-7.6790886 1.1410478 17.340727 4285892664
-7.6455698 1.1416502 17.354437 4285892664
-7.6149535 1.1426989 17.373484 4285892664
-7.5872111 1.1441966 17.397903 4285892664
-7.5642719 1.1464466 17.431326 4285892664
-7.5431871 1.1490066 17.468481 4285892664
-7.5239534 1.1518812 17.509432 4285892664
-7.5065699 1.1550754 17.554239 4285892664
-7.4871283 1.1579827 17.595652 4285892664
-7.4695358 1.1612133 17.640972 4285892664
-7.454771 1.1649276 17.692129 4285892664
-7.4379463 1.1683557 17.739899 4285892664
-7.416122 1.1710216 17.778568 4285892664
-7.3902841 1.1730713 17.809877 4285892664
-7.362401 1.1748132 17.837513 4285892664
-7.335402 1.1767187 17.86714 4285892664
-7.3102474 1.1789486 17.900684 4285892664
-7.2869287 1.1815068 17.938206 4285892664
-7.2596331 1.1834357 17.968187 4285892664
-7.2264628 1.1844074 17.986671 4285892664
-7.1980305 1.1861854 18.014875 4285892664
-7.167593 1.1876459 18.039278 4285892664
-7.1370759 1.1891104 18.063745 4285892664
-7.11409 1.1918786 18.103954 4285892664
-7.102427 1.1966257 18.168079 4285892664
-7.1021714 1.2034023 18.256769 4285892664
-7.0720911 1.2050749 18.283884 4285892664
-7.0495677 1.2080904 18.327248 4285892664
-7.0509124 1.215346 18.421925 4285892664
-10.606391 1.384776 19.428282 4285892664
-10.576801 1.3867365 19.458193 4285892664
-10.437606 1.3742856 19.325184 4285892664
-10.302617 1.3622786 19.19705 4285892664
-10.170109 1.3504921 19.071268 4285892664
-10.041523 1.3391218 18.950058 4285892664
-9.9004803 1.3259776 18.808615 4285892664
-9.7408838 1.3102138 18.637321 4285892664
-9.5880451 1.2952188 18.47456 4285892664
-9.4308081 1.2794871 18.303257 4285892664
-9.2749796 1.263801 18.132286 4285892664
-9.094182 1.2445427 17.920549 4285892664
-8.9373665 1.2284087 17.744093 4285892664
-8.8060808 1.2156577 17.605917 4285892664
-8.703104 1.2067244 17.511028 4285892664
-8.6119709 1.1993618 17.43391 4285892664
-8.5298595 1.1931958 17.370337 4285892664
-8.4663439 1.1895951 17.33592 4285892664
-8.4032383 1.1860176 17.301729 4285892664
-8.3416233 1.1826177 17.269518 4285892664
-8.2857494 1.1800069 17.246273 4285892664
-8.2354612 1.178174 17.231884 4285892664
-8.1885109 1.1768059 17.222778 4285892664
-8.1427269 1.1755935 17.215439 4285892664
-8.100172 1.1748407 17.213343 4285892664
-8.0597486 1.1743932 17.214729 4285892664
-8.0255489 1.1748593 17.226568 4285892664
-7.9902921 1.1751732 17.236673 4285892664
-7.956039 1.1756397 17.248531 4285892664
-7.9248161 1.1765652 17.265652 4285892664
-7.8915095 1.1771859 17.279291 4285892664
-7.8581643 1.1778073 17.292946 4285892664
-7.8237753 1.1782762 17.304855 4285892664
-7.7883549 1.1785922 17.315012 4285892664
-7.7519159 1.1787548 17.323412 4285892664
-7.715466 1.1789174 17.331812 4285892664
-7.680984 1.1793873 17.34375 4285892664
-7.6474571 1.1800113 17.357468 4285892664
-7.6168346 1.1810977 17.376522 4285892664
-7.5890865 1.1826496 17.400951 4285892664
-7.5641904 1.1846708 17.430813 4285892664
-7.5421295 1.1871665 17.466171 4285892664
-7.5219197 1.1899861 17.505301 4285892664
-7.5035591 1.193135 17.548265 4285892664
-7.4841185 1.1961435 17.589645 4285892664
-7.4665241 1.1994865 17.634928 4285892664
-7.4507785 1.2031699 17.684189 4285892664
-7.4329729 1.206555 17.73004 4285892664
-7.4121289 1.2094741 17.770535 4285892664
-7.3862987 1.2115943 17.801809 4285892664
-7.3603711 1.2137226 17.8332 4285892664
-7.3353181 1.2160227 17.866611 4285892664
-7.3101635 1.2183321 17.900158 4285892664
-7.2887821 1.2213123 17.941517 4285892664
-7.2624493 1.223477 17.973442 4285892664
-7.2321582 1.2249835 17.997742 4285892664
-7.2046714 1.226995 18.027929 4285892664
-7.1761303 1.2288458 18.056274 4285892664
-7.144628 1.2301983 18.07884 4285892664
-7.1187711 1.2325654 18.113237 4285892664
-7.1032968 1.2368089 18.169523 4285892664
-7.099205 1.2431419 18.250217 4285892664
-7.0681777 1.2447003 18.275301 4285892664
-7.0466127 1.2479929 18.320639 4285892664
-7.0460138 1.2551501 18.411133 4285892664
-11.04294 1.4764297 19.919252 4285892664
-10.748267 1.4430225 19.562769 4285892664
-10.636222 1.4339696 19.471775 4285892664
-10.60992 1.4364613 19.506777 4285892664
-10.469948 1.4234941 19.372864 4285892664
-10.332628 1.4107724 19.241488 4285892664
-10.20099 1.3987164 19.117249 4285892664
-10.079315 1.3879261 19.006723 4285892664
-9.9417686 1.3748358 18.870886 4285892664
-9.7838297 1.3587838 18.702448 4285892664
-9.629755 1.3431249 18.538132 4285892664
-9.4671841 1.3261261 18.35894 4285892664
-9.3036747 1.308836 18.176359 4285892664
-9.1142416 1.2877048 17.951403 4285892664
-8.9506779 1.270064 17.764545 4285892664
-8.81429 1.2561496 17.618448 4285892664
-8.7065001 1.2462202 17.516014 4285892664
-8.6130276 1.2382666 17.435204 4285892664
-8.5297775 1.2317225 17.36982 4285892664
-8.4662619 1.2279969 17.335407 4285892664
-8.404253 1.2244564 17.302988 4285892664
-8.3447943 1.2212574 17.274296 4285892664
-8.2888908 1.2185538 17.25103 4285892664
-8.2375107 1.2164972 17.234875 4285892664
-8.1926603 1.215397 17.229259 4285892664
-8.1478977 1.2142992 17.223656 4285892664
-8.1053085 1.2135189 17.22155 4285892664
-8.0648556 1.2130549 17.222935 4285892664
-8.0295992 1.2133796 17.23304 4285892664
-7.9943247 1.2137045 17.243153 4285892664
-7.9590302 1.2140296 17.253269 4285892664
-7.9277968 1.2149873 17.270401 4285892664
-7.8944774 1.2156297 17.28405 4285892664
-7.8601079 1.2161143 17.295954 4285892664
-7.8257098 1.2165993 17.307867 4285892664
-7.7912831 1.2170848 17.319792 4285892664
-7.7558284 1.2174118 17.32996 4285892664
-7.7203536 1.2177387 17.340134 4285892664
-7.6868396 1.2183844 17.353851 4285892664
-7.6532874 1.2190305 17.367586 4285892664
-7.6226454 1.2201563 17.386667 4285892664
-7.5939016 1.221604 17.409348 4285892664
-7.5680189 1.2235371 17.437456 4285892664
-7.5440006 1.225799 17.469252 4285892664
-7.5218382 1.2283934 17.504786 4285892664
-7.5015259 1.2313253 17.544115 4285892664
-7.4820852 1.2344356 17.58547 4285892664
-7.4635148 1.2377272 17.628889 4285892664
-7.4467897 1.2413687 17.676256 4285892664
-7.4280071 1.2446998 17.720194 4285892664
-7.4071651 1.2477151 17.760635 4285892664
-7.3823171 1.2500733 17.793751 4285892664
-7.3583422 1.2526097 17.828892 4285892664
-7.3342633 1.255157 17.864183 4285892664
-7.3110495 1.2578858 17.901539 4285892664
-7.2916074 1.2613121 17.946754 4285892664
-7.2681732 1.2640694 17.984495 4285892664
-7.2407618 1.2661482 18.014648 4285892664
-7.2161493 1.2687546 18.050755 4285892664
-7.1885381 1.2708498 18.081142 4285892664
-7.1569915 1.272254 18.103779 4285892664
-7.1263261 1.2738364 18.128439 4285892664
-7.1051226 1.2771797 18.172949 4285892664
-7.0943246 1.2824913 18.23967 4285892664
-7.0623589 1.2839229 18.262716 4285892664
-7.0388889 1.286965 18.303944 4285892664
-7.0382433 1.2943517 18.394226 4285892664
-11.165957 1.540161 20.098255 4285892664
-10.790783 1.4945325 19.62464 4285892664
-10.656177 1.4820555 19.500715 4285892664
-10.629857 1.4846405 19.535837 4285892664
-10.497594 1.4723369 19.413549 4285892664
-10.366025 1.4600205 19.290991 4285892664
-10.2352 1.4476981 19.16823 4285892664
-10.118947 1.4373424 19.066162 4285892664
-9.9894209 1.4249898 18.942818 4285892664
-9.8402939 1.4097013 18.788208 4285892664
-9.6916761 1.3943455 18.632715 4285892664
-9.5230455 1.3759391 18.444674 4285892664
-9.3457956 1.3561028 18.241241 4285892664
-9.1420107 1.332189 17.994268 4285892664
-8.9677048 1.3123943 17.790817 4285892664
-8.8260813 1.2972516 17.636621 4285892664
-8.7122231 1.2860955 17.524681 4285892664
-8.6152239 1.2773528 17.438311 4285892664
-8.5285759 1.2700809 17.36751 4285892664
-8.4661808 1.2663989 17.334892 4285892664
-8.4052687 1.262906 17.304249 4285892664
-8.3468838 1.2597643 17.277313 4285892664
-8.2909594 1.2569685 17.254032 4285892664
-8.2406273 1.2550056 17.23962 4285892664
-8.1946955 1.2537037 17.232248 4285892664
-8.1509705 1.2527317 17.228386 4285892664
-8.1083622 1.2519244 17.226276 4285892664
-8.0678902 1.2514442 17.227659 4285892664
-8.0326214 1.2517797 17.237772 4285892664
-7.9973321 1.2521154 17.247889 4285892664
-7.9620237 1.2524513 17.258011 4285892664
-7.9297581 1.2532779 17.273401 4285892664
-7.8954129 1.253778 17.285295 4285892664
-7.8610396 1.2542787 17.297203 4285892664
-7.8266373 1.2547798 17.309118 4285892664
-7.7922053 1.2552812 17.321045 4285892664
-7.7587452 1.2559475 17.334747 4285892664
-7.7242527 1.2564499 17.346697 4285892664
-7.6897302 1.2569528 17.358654 4285892664
-7.6571527 1.2577857 17.374172 4285892664
-7.627481 1.2591151 17.395048 4285892664
-7.5987234 1.260613 17.417757 4285892664
-7.5718508 1.2624469 17.444105 4285892664
-7.5448956 1.2642865 17.470535 4285892664
-7.5217562 1.2668008 17.504271 4285892664
-7.5004692 1.269662 17.541782 4285892664
-7.4800539 1.2727059 17.581299 4285892664
-7.4605079 1.2759353 17.622854 4285892664
-7.4428053 1.2795238 17.668333 4285892664
-7.4240222 1.2829621 17.712223 4285892664
-7.403182 1.2860742 17.752621 4285892664
-7.3802867 1.2888552 17.789463 4285892664
-7.357286 1.2916489 17.826475 4285892664
-7.3341794 1.2944554 17.863657 4285892664
-7.3119364 1.2974509 17.902922 4285892664
-7.2934637 1.3011696 17.950069 4285892664
-7.2719674 1.3043764 17.991699 4285892664
-7.2464824 1.3068842 18.025768 4285892664
-7.224762 1.3101211 18.067791 4285892664
-7.1990614 1.3126525 18.102175 4285892664
-7.168438 1.3142887 18.126842 4285892664
-7.1338983 1.315204 18.143677 4285892664
-7.1069493 1.3175744 18.176374 4285892664
-7.0875378 1.3214164 18.225145 4285892664
-7.0517888 1.3221589 18.24015 4285892664
-7.0254798 1.3247399 18.275225 4285892664
-7.0199804 1.3314105 18.354984 4285892664
-11.329556 1.6107856 20.336456 4285892664
-10.847486 1.5484588 19.707306 4285892664
-10.684621 1.5315452 19.542162 4285892664
-10.654916 1.5337417 19.572479 4285892664
-10.536926 1.5231304 19.471628 4285892664
-10.414178 1.5117284 19.36256 4285892664
-10.285441 1.4993454 19.243309 4285892664
-10.171306 1.4889998 19.144827 4285892664
-10.046661 1.4770049 19.029305 4285892664
-9.9063282 1.4625677 18.888571 4285892664
-9.7630949 1.4475644 18.741863 4285892664
-9.5893612 1.4278462 18.546522 4285892664
-9.3990459 1.4054455 18.323376 4285892664
-9.1750803 1.3777398 18.045391 4285892664
-8.988492 1.3554598 17.822977 4285892664
-8.8402929 1.3388371 17.658604 4285892664
-8.7237778 1.3269223 17.54258 4285892664
-8.6231279 1.3173418 17.4505 4285892664
-8.5329781 1.3092976 17.374168 4285892664
-8.4683161 1.3051462 17.337944 4285892664
-8.4073801 1.301538 17.307281 4285892664
-8.3489742 1.2982928 17.280331 4285892664
-8.2930288 1.2954046 17.257038 4285892664
-8.2416134 1.2932074 17.240862 4285892664
-8.1956739 1.2918628 17.233488 4285892664
-8.1519413 1.2908586 17.229626 4285892664
-8.1103725 1.2901933 17.229261 4285892664
-8.0698881 1.2896971 17.230642 4285892664
-8.0335751 1.2898748 17.23901 4285892664
-7.9982815 1.2902211 17.249128 4285892664
-7.9629688 1.2905676 17.259254 4285892664
-7.9296775 1.291252 17.272892 4285892664
-7.8963499 1.2919371 17.286545 4285892664
-7.8609586 1.2922846 17.296694 4285892664
-7.8265562 1.2928015 17.308609 4285892664
-7.7921247 1.293319 17.320534 4285892664
-7.7596645 1.294176 17.336004 4285892664
-7.7251663 1.2946945 17.347954 4285892664
-7.6926231 1.2955536 17.363461 4285892664
-7.6610222 1.296584 17.380764 4285892664
-7.6313381 1.2979575 17.401661 4285892664
-7.6035514 1.2996767 17.426178 4285892664
-7.5756884 1.3014005 17.450764 4285892664
-7.5487232 1.3033013 17.477219 4285892664
-7.5236263 1.3055537 17.507372 4285892664
-7.5003872 1.3081614 17.541265 4285892664
-7.4780235 1.3109546 17.577129 4285892664
-7.458478 1.3142862 17.618662 4285892664
-7.4407744 1.3179884 17.664116 4285892664
-7.4210157 1.321358 17.706121 4285892664
-7.400177 1.3245676 17.746485 4285892664
-7.377284 1.3274357 17.783297 4285892664
-7.3562307 1.3306767 17.824059 4285892664
-7.3350673 1.3339347 17.86503 4285892664
-7.3137937 1.3372095 17.906218 4285892664
-7.2972641 1.3414162 17.957239 4285892664
-7.2767363 1.3449141 18.000847 4285892664
-7.2531824 1.3478764 18.038855 4285892664
-7.2314582 1.3512243 18.080954 4285892664
-7.2067122 1.3540293 18.117369 4285892664
-7.1770287 1.3559093 18.14406 4285892664
-7.1395688 1.3562939 18.154993 4285892664
-7.1097341 1.3581806 18.181787 4285892664
-7.0855403 1.3612051 18.220617 4285892664
-7.0459991 1.361215 18.227627 4285892664
-7.0149651 1.3629267 18.252628 4285892664
-7.0065665 1.3692162 18.326065 4285892664
-11.539382 1.6896791 20.642082 4285892664
-10.9206 1.6053221 19.81403 4285892664
-10.721702 1.5825748 19.596333 4285892664
-10.686865 1.5840991 19.619324 4285892664
-10.588226 1.576076 19.547512 4285892664
-10.477521 1.5661641 19.456848 4285892664
-10.353818 1.5541971 19.345646 4285892664
-10.236808 1.5431376 19.243347 4285892664
-10.115375 1.5313021 19.133209 4285892664
-9.9823322 1.5175781 19.004145 4285892664
-9.8444395 1.5029806 18.866232 4285892664
-9.6680031 1.4822845 18.667376 4285892664
-9.4611063 1.456661 18.419159 4285892664
-9.2148628 1.4246535 18.106972 4285892664
-9.0143337 1.3995174 17.863052 4285892664
-8.8593473 1.3813227 17.68821 4285892664
-8.7412119 1.3687923 17.569784 4285892664
-8.6367741 1.3583218 17.471827 4285892664
-8.5418816 1.3492773 17.388027 4285892664
-8.4737835 1.3444505 17.346352 4285892664
-8.4105921 1.3403692 17.312092 4285892664
-8.3510666 1.3368428 17.28335 4285892664
-8.2929478 1.3335114 17.256527 4285892664
-8.2415323 1.3312451 17.240353 4285892664
-8.1955938 1.3298582 17.232979 4285892664
-8.1518602 1.3288223 17.229116 4285892664
-8.1092463 1.3279619 17.227005 4285892664
-8.069808 1.3276237 17.230135 4285892664
-8.0324602 1.3276329 17.236753 4285892664
-7.9971704 1.3279897 17.246872 4285892664
-7.9628878 1.3285207 17.258745 4285892664
-7.9295964 1.3292261 17.272383 4285892664
-7.8942351 1.3295839 17.282522 4285892664
-7.8588533 1.3299417 17.292667 4285892664
-7.8244591 1.3304744 17.304577 4285892664
-7.7910399 1.3311819 17.318262 4285892664
-7.7585831 1.3320652 17.333727 4285892664
-7.7260814 1.33295 17.349215 4285892664
-7.6945267 1.3340112 17.366497 4285892664
-7.6629181 1.3350743 17.383808 4285892664
-7.6351995 1.3368438 17.408279 4285892664
-7.6074038 1.3386184 17.432819 4285892664
-7.5805106 1.3405752 17.459225 4285892664
-7.5525551 1.3423601 17.48391 4285892664
-7.5254974 1.3443285 17.510473 4285892664
-7.5012803 1.3468399 17.542566 4285892664
-7.477941 1.3495412 17.576612 4285892664
-7.4564486 1.3526154 17.614471 4285892664
-7.4377704 1.3562492 17.658052 4285892664
-7.4189858 1.3599037 17.701881 4285892664
-7.3981476 1.3632118 17.742224 4285892664
-7.375257 1.3661675 17.779016 4285892664
-7.3551755 1.3696934 17.821642 4285892664
-7.3349838 1.3732386 17.864504 4285892664
-7.3156519 1.3769908 17.909513 4285892664
-7.302042 1.3818985 17.966343 4285892664
-7.2834592 1.3858914 18.013891 4285892664
-7.2618423 1.3893347 18.05587 4285892664
-7.2381678 1.3924117 18.094145 4285892664
-7.2124414 1.3951172 18.128653 4285892664
-7.1827397 1.3970592 18.155384 4285892664
-7.1462102 1.3976498 18.168312 4285892664
-7.1144371 1.3992109 18.191179 4285892664
-7.0873671 1.4017494 18.22407 4285892664
-7.044014 1.4009802 18.223099 4285892664
-11.007247 1.6649051 19.940588 4285892664
-10.76932 1.6355525 19.666023 4285892664
-10.722425 1.6353017 19.671509 4285892664
-10.641743 1.6298319 19.626692 4285892664
-10.545005 1.6218222 19.557322 4285892664
-10.42805 1.6105902 19.456779 4285892664
-10.304808 1.5982716 19.345636 4285892664
-10.175727 1.5849227 19.224413 4285892664
-10.038228 1.5701213 19.08902 4285892664
-9.9048929 1.5558439 18.958544 4285892664
-9.7264347 1.5342411 18.757053 4285892664
-9.5130215 1.5068388 18.499212 4285892664
-9.2471981 1.4707471 18.156944 4285892664
-9.0353546 1.4430428 17.895575 4285892664
-8.877285 1.4238106 17.716055 4285892664
-8.7587223 1.4108431 17.597107 4285892664
-8.6527672 1.3998191 17.496885 4285892664
-8.5541878 1.3899049 17.407328 4285892664
-8.4814844 1.3841785 17.358353 4285892664
-8.413806 1.379233 17.316908 4285892664
-8.353159 1.3754143 17.286371 4285892664
-8.2950191 1.3719796 17.259533 4285892664
-8.2425175 1.3694628 17.241596 4285892664
-8.1955128 1.3678534 17.23247 4285892664
-8.152832 1.3669652 17.230354 4285892664
-8.1123028 1.3664367 17.231737 4285892664
-8.0738878 1.3662666 17.236614 4285892664
-8.0375547 1.3664552 17.244987 4285892664
-8.003274 1.3670022 17.256865 4285892664
-7.967937 1.3673704 17.266998 4285892664
-7.9336033 1.3679185 17.278893 4285892664
-7.8982234 1.3682871 17.28904 4285892664
-7.8618097 1.3684762 17.297434 4285892664
-7.8274021 1.3690251 17.309351 4285892664
-7.7929668 1.3695744 17.32128 4285892664
-7.7595029 1.3703045 17.334984 4285892664
-7.7269959 1.3712159 17.350473 4285892664
-7.6964307 1.3724904 17.369534 4285892664
-7.6658044 1.3737673 17.388632 4285892664
-7.6390657 1.3757735 17.414907 4285892664
-7.6122441 1.377786 17.441261 4285892664
-7.58534 1.3798048 17.467699 4285892664
-7.5573716 1.3816463 17.492413 4285892664
-7.5303025 1.383677 17.519007 4285892664
-7.5051012 1.3860832 17.54932 4285892664
-7.4798074 1.3884985 17.579746 4285892664
-7.4573393 1.3914812 17.615788 4285892664
-7.4376874 1.3950388 17.657534 4285892664
-7.4169569 1.3984276 17.697645 4285892664
-7.3951464 1.4016446 17.736097 4285892664
-7.3732305 1.4048772 17.774736 4285892664
-7.3541203 1.4086989 17.819227 4285892664
-7.3348999 1.4125426 17.863977 4285892664
-7.3175116 1.4167953 17.912811 4285892664
-7.3058529 1.4222447 17.97353 4285892664
-7.290195 1.4269521 18.02696 4285892664
-7.2705245 1.430902 18.072931 4285892664
-7.2448907 1.4336835 18.107361 4285892664
-7.2191525 1.4364766 18.141932 4285892664
-7.1933079 1.439281 18.176645 4285892664
-7.1625195 1.4410936 18.20154 4285892664
-7.1306858 1.4427098 18.224503 4285892664
-7.0997367 1.4445313 18.249523 4285892664
-7.0458279 1.4415241 18.226551 4285892664
-11.098995 1.7260671 20.074615 4285892664
-10.817388 1.6890315 19.736374 4285892664
-10.751377 1.685782 19.713909 4285892664
-10.685632 1.6825454 19.691536 4285892664
-10.601655 1.6763686 19.641586 4285892664
-10.496814 1.6667889 19.559687 4285892664
-10.367309 1.6531483 19.43961 4285892664
-10.233691 1.6387172 19.311985 4285892664
-10.091715 1.6227942 19.170212 4285892664
-9.9601231 1.6084204 19.042833 4285892664
-9.7827139 1.5863944 18.843407 4285892664
-9.5613728 1.5569202 18.573736 4285892664
-9.2745342 1.5163205 18.199125 4285892664
-9.0489817 1.4855387 17.916513 4285892664
-8.8868446 1.4650699 17.730709 4285892664
-8.772768 1.4524813 17.618944 4285892664
-8.6676683 1.4412879 17.520208 4285892664
-8.5665321 1.4306594 17.426687 4285892664
-8.4880838 1.4237951 17.368582 4285892664
-8.4181232 1.418318 17.323505 4285892664
-8.3552523 1.4140077 17.289396 4285892664
-8.2960138 1.4102831 17.26078 4285892664
-8.2435045 1.4076914 17.242838 4285892664
-8.1975498 1.4062188 17.23546 4285892664
-8.1548557 1.4053035 17.233343 4285892664
-8.1164093 1.4051281 17.238222 4285892664
-8.0790138 1.4051374 17.24485 4285892664
-8.0436935 1.4055163 17.254982 4285892664
-8.009387 1.4060801 17.266874 4285892664
-7.9750514 1.4066446 17.278776 4285892664
-7.939662 1.4070241 17.288929 4285892664
-7.904254 1.4074042 17.299086 4285892664
-7.8678112 1.4075989 17.307487 4285892664
-7.8323679 1.407979 17.317656 4285892664
-7.7979102 1.408545 17.329596 4285892664
-7.7644248 1.4092975 17.343313 4285892664
-7.7328973 1.4104228 17.360594 4285892664
-7.7033062 1.4119234 17.381458 4285892664
-7.6736488 1.4134274 17.40237 4285892664
-7.6478815 1.4156846 17.430485 4285892664
-7.6220279 1.4179497 17.458694 4285892664
-7.5951004 1.4200333 17.485195 4285892664
-7.5671067 1.4219342 17.50997 4285892664
-7.5400143 1.4240304 17.536629 4285892664
-7.5147958 1.4265144 17.567019 4285892664
-7.4894838 1.4290075 17.597519 4285892664
-7.4650536 1.4317019 17.629972 4285892664
-7.4424748 1.4347931 17.666252 4285892664
-7.4207673 1.4380924 17.704556 4285892664
-7.3989544 1.4414076 17.743046 4285892664
-7.3760629 1.4445431 17.779846 4285892664
-7.3569522 1.4484805 17.824371 4285892664
-7.3387036 1.4526386 17.871058 4285892664
-7.3213177 1.4570215 17.919943 4285892664
-7.3096681 1.4626375 17.980726 4285892664
-7.2949915 1.4676917 18.03616 4285892664
-7.2753201 1.4717635 18.082191 4285892664
-7.2477279 1.4742219 18.112728 4285892664
-7.2219839 1.4770994 18.147326 4285892664
-7.2000194 1.4808137 18.190016 4285892664
-7.1779389 1.4845477 18.232933 4285892664
-7.147016 1.4864271 18.257994 4285892664
-7.1083026 1.4866449 18.267035 4285892664
-7.0428939 1.4810593 18.220028 4285892664
-11.203482 1.7901096 20.22731 4285892664
-10.865912 1.7430193 19.807394 4285892664
-10.771885 1.7351511 19.743805 4285892664
-10.716211 1.7334834 19.736572 4285892664
-10.643698 1.7290344 19.703999 4285892664
-10.554841 1.721849 19.646446 4285892664
-10.42408 1.7076527 19.524921 4285892664
-10.285975 1.692104 19.390924 4285892664
-10.139587 1.6750269 19.24283 4285892664
-10.011449 1.6608585 19.12113 4285892664
-9.8352785 1.6384505 18.924026 4285892664
-9.6088467 1.6073098 18.646894 4285892664
-9.2954588 1.5610613 18.23131 4285892664
-9.0551443 1.5268874 17.925758 4285892664
-8.8891745 1.5051782 17.733978 4285892664
-8.7821312 1.4934461 17.633368 4285892664
-8.6791515 1.4823077 17.538086 4285892664
-8.5777807 1.4713433 17.444292 4285892664
-8.4958124 1.4636747 17.380625 4285892664
-8.4213438 1.457253 17.328329 4285892664
-8.3573475 1.4526225 17.292421 4285892664
-8.2970095 1.4485976 17.26203 4285892664
-8.2455578 1.4461212 17.245836 4285892664
-8.1995888 1.4446054 17.238453 4285892664
-8.158989 1.4440436 17.239834 4285892664
-8.1205196 1.4438627 17.244715 4285892664
-8.0851917 1.4442525 17.254852 4285892664
-8.0508823 1.444833 17.26675 4285892664
-8.0165453 1.4454139 17.278658 4285892664
-7.9811487 1.4458047 17.288816 4285892664
-7.9457316 1.4461956 17.298981 4285892664
-7.9102955 1.4465867 17.309151 4285892664
-7.8748393 1.4469781 17.319324 4285892664
-7.8403754 1.4475608 17.331274 4285892664
-7.806891 1.4483355 17.345003 4285892664
-7.7743721 1.4493029 17.360521 4285892664
-7.7438092 1.4506557 17.37962 4285892664
-7.7151828 1.4523962 17.402321 4285892664
-7.6864834 1.4541408 17.425081 4285892664
-7.6616855 1.4566649 17.455082 4285892664
-7.6358037 1.4590037 17.483389 4285892664
-7.6098342 1.4613503 17.511791 4285892664
-7.5827894 1.4635092 17.538473 4285892664
-7.5566459 1.4658712 17.567062 4285892664
-7.5313959 1.4684383 17.59758 4285892664
-7.5050726 1.470817 17.626371 4285892664
-7.4796376 1.4734024 17.657108 4285892664
-7.4550872 1.4761966 17.689814 4285892664
-7.4304385 1.479002 17.722652 4285892664
-7.4076419 1.4822205 17.759367 4285892664
-7.3847404 1.4854538 17.796251 4285892664
-7.3656301 1.4895141 17.840883 4285892664
-7.3464093 1.4935977 17.885771 4285892664
-7.3270774 1.4977051 17.93092 4285892664
-7.3134871 1.5030774 17.98793 4285892664
-7.2958837 1.5076566 18.037575 4285892664
-7.2752352 1.5116364 18.081657 4285892664
-7.2447209 1.5135344 18.106291 4285892664
-7.2209258 1.5169132 18.144812 4285892664
-7.2038245 1.5217942 18.197437 4285892664
-7.1914797 1.5277787 18.260456 4285892664
-7.1605115 1.5297197 18.285606 4285892664
-7.1130323 1.5280129 18.276545 4285892664
-11.298739 1.8535613 20.366467 4285892664
-10.890299 1.7934253 19.842846 4285892664
-10.756325 1.7786723 19.720291 4285892664
-10.712696 1.7789707 19.730869 4285892664
-10.655461 1.7769744 19.721123 4285892664
-10.586581 1.7729853 19.693689 4285892664
-10.460068 1.7591416 19.578829 4285892664
-10.325942 1.7438686 19.451155 4285892664
-10.17853 1.726171 19.301813 4285892664
-10.057195 1.7128141 19.190863 4285892664
-9.88696 1.6908485 19.003281 4285892664
-9.6610918 1.6589805 18.727444 4285892664
-9.3270788 1.6078745 18.280161 4285892664
-9.0700903 1.5698415 17.948763 4285892664
-8.8975515 1.5463785 17.746769 4285892664
-8.7938862 1.5349268 17.651579 4285892664
-8.6941509 1.5240672 17.561562 4285892664
-8.5936155 1.5129598 17.469233 4285892664
-8.5069141 1.5042384 17.398094 4285892664
-8.4311848 1.497419 17.343857 4285892664
-8.365984 1.4924489 17.306078 4285892664
-8.3077116 1.4886971 17.27914 4285892664
-8.2561684 1.4861444 17.262894 4285892664
-8.210124 1.4845818 17.25548 4285892664
-8.1694632 1.4840027 17.256857 4285892664
-8.1309385 1.4838158 17.261742 4285892664
-8.0955639 1.4842173 17.271898 4285892664
-8.062254 1.4850118 17.285582 4285892664
-8.0278683 1.4856104 17.297516 4285892664
-7.9934545 1.4862096 17.30946 4285892664
-7.9590116 1.4868095 17.321415 4285892664
-7.9245396 1.4874096 17.33338 4285892664
-7.8900385 1.4880105 17.345354 4285892664
-7.8575425 1.4890065 17.360891 4285892664
-7.823987 1.4898064 17.37467 4285892664
-7.7924123 1.491003 17.392029 4285892664
-7.7627964 1.4925985 17.412992 4285892664
-7.7341175 1.4943968 17.435799 4285892664
-7.7053652 1.4961995 17.45866 4285892664
-7.6795359 1.4986072 17.486998 4285892664
-7.6536188 1.5010228 17.51543 4285892664
-7.627614 1.5034467 17.543961 4285892664
-7.6005278 1.5056767 17.570759 4285892664
-7.5743475 1.5081166 17.599476 4285892664
-7.550055 1.5109719 17.631973 4285892664
-7.5236907 1.5134299 17.660902 4285892664
-7.4972377 1.5158962 17.68993 4285892664
-7.4706931 1.5183709 17.719055 4285892664
-7.4440575 1.5208541 17.748281 4285892664
-7.4192872 1.5237606 17.781368 4285892664
-7.3963728 1.527095 17.818367 4285892664
-7.3772626 1.5312823 17.863138 4285892664
-7.3590217 1.5357049 17.910084 4285892664
-7.3387113 1.5397298 17.953463 4285892664
-7.3222027 1.5446305 18.004835 4285892664
-7.3036246 1.5491344 18.052647 4285892664
-7.2839527 1.55345 18.098787 4285892664
-7.2524338 1.5551891 18.121504 4285892664
-7.2286291 1.55867 18.160107 4285892664
-7.2134848 1.5641363 18.216839 4285892664
-7.2021403 1.5705262 18.282047 4285892664
-7.168211 1.5718628 18.301205 4285892664
-7.1110191 1.5678991 18.271982 4285892664
-11.384212 1.9162027 20.491268 4285892664
-10.921854 1.8452783 19.888855 4285892664
-10.744232 1.8226494 19.701916 4285892664
-10.70577 1.823838 19.720091 4285892664
-10.658758 1.8235548 19.725582 4285892664
-10.601636 1.8215078 19.715851 4285892664
-10.481419 1.8084022 19.610619 4285892664
-10.351659 1.7934999 19.489744 4285892664
-10.209895 1.7763408 19.34923 4285892664
-10.092548 1.7633549 19.244646 4285892664
-9.9317083 1.7424974 19.071838 4285892664
-9.7153873 1.7115126 18.811167 4285892664
-9.365613 1.6562325 18.339779 4285892664
-9.0913925 1.6140873 17.981718 4285892664
-8.9083719 1.5881037 17.763403 4285892664
-8.8068647 1.5767444 17.671722 4285892664
-8.7068748 1.5655551 17.581413 4285892664
-8.6060829 1.5541108 17.488787 4285892664
-8.5169249 1.5447092 17.413805 4285892664
-8.4410505 1.5376872 17.359425 4285892664
-8.3768272 1.5327736 17.32332 4285892664
-8.3195286 1.5291126 17.298071 4285892664
-8.2689571 1.5266851 17.283527 4285892664
-8.2238884 1.5252769 17.277842 4285892664
-8.1831465 1.5246794 17.279209 4285892664
-8.1445513 1.5244867 17.284101 4285892664
-8.1091166 1.5249003 17.294283 4285892664
-8.0768003 1.5259213 17.309771 4285892664
-8.043395 1.5267411 17.323509 4285892664
-8.0089159 1.5273589 17.335489 4285892664
-7.9754405 1.5281804 17.349257 4285892664
-7.9419284 1.5290025 17.363037 4285892664
-7.9094043 1.5300294 17.378616 4285892664
-7.8758125 1.5308537 17.392433 4285892664
-7.8432012 1.5318834 17.408052 4285892664
-7.810544 1.5329142 17.423695 4285892664
-7.7798619 1.5343561 17.442951 4285892664
-7.7501278 1.5360062 17.464046 4285892664
-7.7213316 1.5378658 17.486996 4285892664
-7.6944671 1.5401429 17.513632 4285892664
-7.66752 1.5424273 17.54035 4285892664
-7.6404881 1.5447186 17.56715 4285892664
-7.6123762 1.5468087 17.592201 4285892664
-7.5861707 1.5493227 17.621004 4285892664
-7.561861 1.5522652 17.653601 4285892664
-7.5354729 1.5547981 17.682615 4285892664
-7.5080056 1.5571283 17.709866 4285892664
-7.4804521 1.5594658 17.737204 4285892664
-7.451828 1.5615981 17.762749 4285892664
-7.426064 1.5643762 17.794018 4285892664
-7.4031425 1.5678076 17.831083 4285892664
-7.385994 1.5725479 17.879749 4285892664
-7.3687358 1.5773187 17.928726 4285892664
-7.3513675 1.5821198 17.978016 4285892664
-7.3348699 1.5871717 18.02957 4285892664
-7.3182616 1.5922575 18.081469 4285892664
-7.2995729 1.5969321 18.129768 4285892664
-7.2689791 1.5989498 18.154556 4285892664
-7.2441745 1.602318 18.191343 4285892664
-7.2261114 1.6072806 18.242308 4285892664
-7.2098918 1.6127304 18.297646 4285892664
-7.1720243 1.6131952 18.308746 4285892664
-10.957153 1.8980747 19.94038 4285892664
-10.733877 1.8668244 19.686113 4285892664
-10.695446 1.868041 19.704258 4285892664
-10.651874 1.8683541 19.714817 4285892664
-10.601539 1.8674605 19.715235 4285892664
-10.486283 1.8549004 19.617504 4285892664
-10.3629 1.8407589 19.506351 4285892664
-10.230359 1.8248283 19.380007 4285892664
-10.11727 1.8122915 19.282118 4285892664
-9.9693146 1.7932618 19.129379 4285892664
-9.7674255 1.7641432 18.891384 4285892664
-9.4098921 1.7060173 18.408344 4285892664
-9.1191454 1.6597334 18.024773 4285892664
-8.9240885 1.6308458 17.787746 4285892664
-8.8186913 1.6184722 17.690042 4285892664
-8.7161312 1.6065146 17.595747 4285892664
-8.6140079 1.5945249 17.501072 4285892664
-8.525835 1.5850695 17.427748 4285892664
